x,y,z
652000.0,5271000.0,11314.8
653000.0,5271000.0,11262.7
654000.0,5271000.0,11165.0
655000.0,5271000.0,11074.099999999999
656000.0,5271000.0,11031.100000000002
657000.0,5271000.0,11739.9
658000.0,5271000.0,12179.2
659000.0,5271000.0,7440.25
660000.0,5271000.0,6994.700000000001
661000.0,5271000.0,10191.1
662000.0,5271000.0,9124.1
663000.0,5271000.0,9110.7
664000.0,5271000.0,9838.8
665000.0,5271000.0,7860.05
666000.0,5271000.0,8245.75
667000.0,5271000.0,7616.35
668000.0,5271000.0,7078.3
669000.0,5271000.0,7917.05
670000.0,5271000.0,8833.4
671000.0,5271000.0,7720.75
672000.0,5271000.0,6622.7
673000.0,5271000.0,10710.7
674000.0,5271000.0,10709.7
675000.0,5271000.0,11784.8
676000.0,5271000.0,11314.2
677000.0,5271000.0,12579.6
678000.0,5271000.0,6564.55
679000.0,5271000.0,7079.75
680000.0,5271000.0,6922.45
681000.0,5271000.0,7068.65
682000.0,5271000.0,7599.8
683000.0,5271000.0,7211.4
684000.0,5271000.0,6624.8
685000.0,5271000.0,6639.650000000001
686000.0,5271000.0,11318.2
687000.0,5271000.0,10304.0
688000.0,5271000.0,10229.199999999999
689000.0,5271000.0,10146.0
690000.0,5271000.0,10337.1
691000.0,5271000.0,10146.1
692000.0,5271000.0,10980.4
693000.0,5271000.0,7785.299999999999
694000.0,5271000.0,8855.1
695000.0,5271000.0,12517.3
791000.0,5271000.0,11201.55
792000.0,5271000.0,9190.5
793000.0,5271000.0,10556.25
794000.0,5271000.0,9997.2
795000.0,5271000.0,10117.7
796000.0,5271000.0,8665.25
797000.0,5271000.0,12226.199999999999
798000.0,5271000.0,11430.8
799000.0,5271000.0,8681.900000000001
800000.0,5271000.0,6919.75
801000.0,5271000.0,9396.25
802000.0,5271000.0,9453.4
803000.0,5271000.0,10317.75
804000.0,5271000.0,11582.6
546000.0,5270000.0,6823.0
547000.0,5270000.0,6867.0
548000.0,5270000.0,7029.8
549000.0,5270000.0,7163.099999999999
550000.0,5270000.0,7237.0
551000.0,5270000.0,7199.0
552000.0,5270000.0,7348.0
553000.0,5270000.0,7305.1
554000.0,5270000.0,7623.099999999999
555000.0,5270000.0,7813.7
556000.0,5270000.0,7842.7
557000.0,5270000.0,7058.199999999999
563000.0,5270000.0,10384.6
564000.0,5270000.0,10879.099999999999
565000.0,5270000.0,10712.1
566000.0,5270000.0,10157.8
567000.0,5270000.0,9459.0
568000.0,5270000.0,8656.5
569000.0,5270000.0,9123.2
570000.0,5270000.0,10085.9
571000.0,5270000.0,10995.900000000001
572000.0,5270000.0,10463.800000000001
573000.0,5270000.0,10586.7
574000.0,5270000.0,11341.199999999999
575000.0,5270000.0,10844.6
576000.0,5270000.0,10427.7
577000.0,5270000.0,10710.1
578000.0,5270000.0,11184.3
579000.0,5270000.0,6632.55
580000.0,5270000.0,6693.75
581000.0,5270000.0,6347.9
582000.0,5270000.0,6444.8
583000.0,5270000.0,6482.0
584000.0,5270000.0,6972.65
585000.0,5270000.0,6740.45
586000.0,5270000.0,12558.5
587000.0,5270000.0,11127.4
588000.0,5270000.0,10443.600000000002
589000.0,5270000.0,9900.9
590000.0,5270000.0,9976.5
591000.0,5270000.0,10939.9
592000.0,5270000.0,10108.4
593000.0,5270000.0,10061.0
594000.0,5270000.0,9822.0
595000.0,5270000.0,9785.1
596000.0,5270000.0,10049.5
597000.0,5270000.0,10884.5
598000.0,5270000.0,10919.9
599000.0,5270000.0,12279.7
600000.0,5270000.0,6814.25
601000.0,5270000.0,7571.75
602000.0,5270000.0,7091.5
603000.0,5270000.0,6571.7
604000.0,5270000.0,6988.8
605000.0,5270000.0,7205.85
606000.0,5270000.0,7162.25
607000.0,5270000.0,12402.7
611000.0,5270000.0,7171.3
612000.0,5270000.0,6353.299999999999
613000.0,5270000.0,11884.7
614000.0,5270000.0,12407.2
615000.0,5270000.0,6597.799999999999
616000.0,5270000.0,7719.650000000001
617000.0,5270000.0,11233.899999999998
618000.0,5270000.0,11130.8
619000.0,5270000.0,6752.55
620000.0,5270000.0,6595.25
621000.0,5270000.0,12066.7
622000.0,5270000.0,10614.400000000001
623000.0,5270000.0,10523.2
624000.0,5270000.0,10524.9
625000.0,5270000.0,10521.5
626000.0,5270000.0,10535.3
627000.0,5270000.0,10596.199999999999
628000.0,5270000.0,10637.4
629000.0,5270000.0,10482.8
630000.0,5270000.0,10588.800000000001
631000.0,5270000.0,10580.1
632000.0,5270000.0,10754.3
633000.0,5270000.0,6747.7
634000.0,5270000.0,7681.599999999999
635000.0,5270000.0,8716.55
636000.0,5270000.0,9065.599999999999
637000.0,5270000.0,7055.8
638000.0,5270000.0,8177.25
639000.0,5270000.0,7616.05
640000.0,5270000.0,8270.75
641000.0,5270000.0,9474.400000000001
642000.0,5270000.0,7976.900000000001
643000.0,5270000.0,7332.799999999999
644000.0,5270000.0,6701.65
645000.0,5270000.0,6546.7
646000.0,5270000.0,12314.7
647000.0,5270000.0,12083.800000000001
648000.0,5270000.0,11912.8
649000.0,5270000.0,11770.3
650000.0,5270000.0,11732.8
651000.0,5270000.0,11533.899999999998
652000.0,5270000.0,11613.699999999999
653000.0,5270000.0,11717.0
654000.0,5270000.0,11924.6
655000.0,5270000.0,6371.949999999999
656000.0,5270000.0,6978.85
657000.0,5270000.0,11349.9
658000.0,5270000.0,11335.0
659000.0,5270000.0,6604.85
660000.0,5270000.0,9943.9
661000.0,5270000.0,9159.5
662000.0,5270000.0,9139.8
663000.0,5270000.0,9860.4
664000.0,5270000.0,6337.35
665000.0,5270000.0,9812.0
666000.0,5270000.0,10175.55
667000.0,5270000.0,9492.0
668000.0,5270000.0,8035.650000000001
669000.0,5270000.0,8234.6
670000.0,5270000.0,9504.45
671000.0,5270000.0,7600.25
672000.0,5270000.0,6334.049999999999
673000.0,5270000.0,11712.5
674000.0,5270000.0,6639.5
675000.0,5270000.0,6599.049999999999
676000.0,5270000.0,6665.2
677000.0,5270000.0,7542.05
678000.0,5270000.0,7112.75
679000.0,5270000.0,6756.2
680000.0,5270000.0,7125.0
681000.0,5270000.0,7074.95
682000.0,5270000.0,6831.0
683000.0,5270000.0,10483.0
684000.0,5270000.0,10644.9
685000.0,5270000.0,10724.7
686000.0,5270000.0,10606.599999999999
687000.0,5270000.0,11034.099999999999
688000.0,5270000.0,6568.9
689000.0,5270000.0,12418.099999999999
690000.0,5270000.0,6807.4
691000.0,5270000.0,10632.6
692000.0,5270000.0,7140.05
693000.0,5270000.0,8076.65
694000.0,5270000.0,7433.9
793000.0,5270000.0,12280.650000000001
794000.0,5270000.0,11935.150000000001
795000.0,5270000.0,11824.5
796000.0,5270000.0,7814.650000000001
797000.0,5270000.0,10468.3
798000.0,5270000.0,8468.85
799000.0,5270000.0,8310.75
800000.0,5270000.0,9570.599999999999
801000.0,5270000.0,8960.1
802000.0,5270000.0,7677.799999999999
803000.0,5270000.0,9817.6
804000.0,5270000.0,11270.7
546000.0,5269000.0,6704.400000000001
547000.0,5269000.0,6756.900000000001
548000.0,5269000.0,6773.4
549000.0,5269000.0,6831.5
550000.0,5269000.0,6944.6
551000.0,5269000.0,7239.9
552000.0,5269000.0,6996.5
553000.0,5269000.0,7174.9
554000.0,5269000.0,7413.7
555000.0,5269000.0,7605.799999999999
556000.0,5269000.0,7279.1
562000.0,5269000.0,11031.599999999999
563000.0,5269000.0,11556.5
564000.0,5269000.0,10562.6
565000.0,5269000.0,9947.8
566000.0,5269000.0,9439.8
567000.0,5269000.0,8691.900000000001
568000.0,5269000.0,8811.1
569000.0,5269000.0,9899.199999999999
570000.0,5269000.0,11243.2
571000.0,5269000.0,10959.7
572000.0,5269000.0,10464.3
573000.0,5269000.0,10895.2
574000.0,5269000.0,11516.399999999998
575000.0,5269000.0,11379.9
576000.0,5269000.0,10451.300000000001
577000.0,5269000.0,10905.900000000001
578000.0,5269000.0,11434.6
579000.0,5269000.0,11793.899999999998
580000.0,5269000.0,11948.0
581000.0,5269000.0,6724.2
582000.0,5269000.0,7270.299999999999
583000.0,5269000.0,6740.4
584000.0,5269000.0,12021.900000000001
585000.0,5269000.0,10922.4
586000.0,5269000.0,9958.0
587000.0,5269000.0,9899.8
588000.0,5269000.0,9900.0
589000.0,5269000.0,10196.900000000001
590000.0,5269000.0,9895.3
591000.0,5269000.0,10918.699999999999
592000.0,5269000.0,10402.1
593000.0,5269000.0,10000.5
594000.0,5269000.0,10362.2
595000.0,5269000.0,10262.0
596000.0,5269000.0,9978.300000000001
597000.0,5269000.0,10142.7
598000.0,5269000.0,11593.699999999999
599000.0,5269000.0,7289.9
600000.0,5269000.0,8148.65
601000.0,5269000.0,7765.4
602000.0,5269000.0,7012.25
603000.0,5269000.0,6759.85
604000.0,5269000.0,6945.25
605000.0,5269000.0,7404.6
606000.0,5269000.0,8559.45
607000.0,5269000.0,7677.5
608000.0,5269000.0,12631.5
611000.0,5269000.0,12413.699999999999
612000.0,5269000.0,6905.2
613000.0,5269000.0,7299.650000000001
614000.0,5269000.0,8119.2
615000.0,5269000.0,6987.7
616000.0,5269000.0,11474.0
617000.0,5269000.0,11754.3
618000.0,5269000.0,11214.2
619000.0,5269000.0,11021.900000000001
623000.0,5269000.0,12191.300000000001
624000.0,5269000.0,11618.5
625000.0,5269000.0,11168.800000000001
626000.0,5269000.0,10700.4
627000.0,5269000.0,11111.399999999998
628000.0,5269000.0,11644.400000000001
629000.0,5269000.0,11840.900000000001
630000.0,5269000.0,10544.2
631000.0,5269000.0,10675.2
632000.0,5269000.0,11232.6
633000.0,5269000.0,7892.55
634000.0,5269000.0,9398.5
635000.0,5269000.0,8821.0
636000.0,5269000.0,7624.8
637000.0,5269000.0,8460.650000000001
638000.0,5269000.0,8772.75
639000.0,5269000.0,9371.1
640000.0,5269000.0,8571.55
641000.0,5269000.0,10166.55
642000.0,5269000.0,9224.05
643000.0,5269000.0,8919.400000000001
644000.0,5269000.0,7653.55
645000.0,5269000.0,6448.85
646000.0,5269000.0,7198.400000000001
647000.0,5269000.0,7107.35
648000.0,5269000.0,6470.05
649000.0,5269000.0,12046.0
650000.0,5269000.0,7176.15
651000.0,5269000.0,7930.700000000001
652000.0,5269000.0,8618.55
653000.0,5269000.0,6419.300000000001
654000.0,5269000.0,8648.85
655000.0,5269000.0,9110.75
656000.0,5269000.0,9529.9
657000.0,5269000.0,8000.650000000001
658000.0,5269000.0,11794.400000000001
659000.0,5269000.0,11910.3
660000.0,5269000.0,10505.3
661000.0,5269000.0,9192.0
662000.0,5269000.0,9180.5
663000.0,5269000.0,6824.2
664000.0,5269000.0,8834.7
665000.0,5269000.0,10362.1
666000.0,5269000.0,9960.75
667000.0,5269000.0,9345.35
668000.0,5269000.0,8706.8
669000.0,5269000.0,8276.5
670000.0,5269000.0,8696.1
671000.0,5269000.0,7700.45
672000.0,5269000.0,11780.1
673000.0,5269000.0,11779.2
674000.0,5269000.0,7082.1
675000.0,5269000.0,7295.0
676000.0,5269000.0,7172.25
677000.0,5269000.0,7267.9
678000.0,5269000.0,12303.099999999999
679000.0,5269000.0,11264.2
680000.0,5269000.0,10653.099999999999
681000.0,5269000.0,10598.400000000001
682000.0,5269000.0,10878.400000000001
683000.0,5269000.0,10632.3
684000.0,5269000.0,10848.0
685000.0,5269000.0,11425.900000000001
686000.0,5269000.0,6752.25
687000.0,5269000.0,8778.5
688000.0,5269000.0,7294.650000000001
689000.0,5269000.0,12009.0
690000.0,5269000.0,11057.8
691000.0,5269000.0,11050.900000000001
692000.0,5269000.0,7339.400000000001
693000.0,5269000.0,8292.3
694000.0,5269000.0,10119.85
794000.0,5269000.0,11112.5
795000.0,5269000.0,11413.95
796000.0,5269000.0,9200.35
797000.0,5269000.0,10495.45
798000.0,5269000.0,9203.2
799000.0,5269000.0,9566.05
800000.0,5269000.0,9408.8
801000.0,5269000.0,6758.7
802000.0,5269000.0,10431.300000000001
803000.0,5269000.0,10336.05
804000.0,5269000.0,11503.600000000002
549000.0,5268000.0,6717.7
550000.0,5268000.0,6690.4
551000.0,5268000.0,6666.700000000001
552000.0,5268000.0,6899.200000000001
553000.0,5268000.0,6877.7
554000.0,5268000.0,7078.5
555000.0,5268000.0,7318.6
556000.0,5268000.0,6822.1
563000.0,5268000.0,11263.800000000001
564000.0,5268000.0,9793.9
565000.0,5268000.0,9905.1
566000.0,5268000.0,9203.8
567000.0,5268000.0,8707.0
568000.0,5268000.0,9419.5
569000.0,5268000.0,10560.2
570000.0,5268000.0,10980.3
571000.0,5268000.0,11161.599999999999
572000.0,5268000.0,10698.0
573000.0,5268000.0,10906.100000000002
574000.0,5268000.0,12043.699999999999
575000.0,5268000.0,10717.7
576000.0,5268000.0,11287.1
577000.0,5268000.0,10689.6
578000.0,5268000.0,10491.0
579000.0,5268000.0,11158.2
580000.0,5268000.0,12386.900000000001
581000.0,5268000.0,11690.7
582000.0,5268000.0,10785.599999999999
583000.0,5268000.0,10184.400000000001
584000.0,5268000.0,9952.1
585000.0,5268000.0,10019.0
586000.0,5268000.0,10957.7
587000.0,5268000.0,12422.7
588000.0,5268000.0,6454.5
589000.0,5268000.0,6808.150000000001
590000.0,5268000.0,12219.6
591000.0,5268000.0,9978.4
592000.0,5268000.0,9912.6
593000.0,5268000.0,9821.3
594000.0,5268000.0,9851.699999999999
595000.0,5268000.0,9887.7
596000.0,5268000.0,9924.9
597000.0,5268000.0,10051.5
598000.0,5268000.0,12241.199999999999
599000.0,5268000.0,7956.549999999999
600000.0,5268000.0,8563.7
601000.0,5268000.0,7165.2
602000.0,5268000.0,6692.5
603000.0,5268000.0,7128.200000000001
604000.0,5268000.0,7810.950000000001
605000.0,5268000.0,8005.5
606000.0,5268000.0,8811.900000000001
607000.0,5268000.0,6830.85
608000.0,5268000.0,12638.2
609000.0,5268000.0,7902.5
610000.0,5268000.0,7896.849999999999
611000.0,5268000.0,12180.900000000001
612000.0,5268000.0,7754.400000000001
613000.0,5268000.0,7486.15
614000.0,5268000.0,12317.1
615000.0,5268000.0,6660.0
616000.0,5268000.0,7847.849999999999
617000.0,5268000.0,7801.549999999999
618000.0,5268000.0,6864.85
628000.0,5268000.0,7042.65
629000.0,5268000.0,12234.400000000001
630000.0,5268000.0,10802.7
631000.0,5268000.0,11580.7
632000.0,5268000.0,12421.300000000001
633000.0,5268000.0,7135.700000000001
634000.0,5268000.0,7528.099999999999
635000.0,5268000.0,9195.55
636000.0,5268000.0,8592.0
637000.0,5268000.0,11125.2
638000.0,5268000.0,10941.599999999999
639000.0,5268000.0,10249.45
640000.0,5268000.0,10226.3
641000.0,5268000.0,8529.7
642000.0,5268000.0,9819.6
643000.0,5268000.0,8576.8
644000.0,5268000.0,6544.75
645000.0,5268000.0,6856.0
646000.0,5268000.0,8438.099999999999
647000.0,5268000.0,8868.25
648000.0,5268000.0,9251.6
649000.0,5268000.0,12514.0
650000.0,5268000.0,8430.95
651000.0,5268000.0,9585.0
652000.0,5268000.0,8200.25
653000.0,5268000.0,7759.9
654000.0,5268000.0,9076.25
655000.0,5268000.0,8032.75
656000.0,5268000.0,7044.55
657000.0,5268000.0,7065.900000000001
658000.0,5268000.0,7386.950000000001
659000.0,5268000.0,10394.099999999999
660000.0,5268000.0,9250.599999999999
661000.0,5268000.0,9227.6
662000.0,5268000.0,6421.1
663000.0,5268000.0,9119.8
664000.0,5268000.0,10321.7
665000.0,5268000.0,11480.85
666000.0,5268000.0,9366.05
667000.0,5268000.0,9817.949999999999
668000.0,5268000.0,8874.65
669000.0,5268000.0,8182.0
670000.0,5268000.0,6656.849999999999
671000.0,5268000.0,12602.4
672000.0,5268000.0,11507.3
673000.0,5268000.0,6423.4
674000.0,5268000.0,6783.7
675000.0,5268000.0,7143.65
676000.0,5268000.0,12466.100000000002
677000.0,5268000.0,10836.300000000001
678000.0,5268000.0,10782.9
679000.0,5268000.0,11779.9
680000.0,5268000.0,6948.75
681000.0,5268000.0,8129.400000000001
682000.0,5268000.0,7738.9
683000.0,5268000.0,11301.0
684000.0,5268000.0,11179.099999999999
685000.0,5268000.0,7830.349999999999
686000.0,5268000.0,9304.1
687000.0,5268000.0,6912.849999999999
688000.0,5268000.0,6379.549999999999
689000.0,5268000.0,7768.5
690000.0,5268000.0,8341.65
691000.0,5268000.0,11742.7
692000.0,5268000.0,11918.400000000001
693000.0,5268000.0,6964.8
694000.0,5268000.0,7523.8
795000.0,5268000.0,10845.55
796000.0,5268000.0,9762.55
797000.0,5268000.0,10619.6
798000.0,5268000.0,10117.65
799000.0,5268000.0,10983.35
800000.0,5268000.0,10717.6
801000.0,5268000.0,9560.15
802000.0,5268000.0,8527.35
803000.0,5268000.0,9753.300000000001
804000.0,5268000.0,11270.7
552000.0,5267000.0,6770.1
553000.0,5267000.0,6648.199999999999
554000.0,5267000.0,6646.2
555000.0,5267000.0,6782.0
562000.0,5267000.0,11853.800000000001
563000.0,5267000.0,10552.7
564000.0,5267000.0,9852.9
565000.0,5267000.0,9489.3
566000.0,5267000.0,8850.0
567000.0,5267000.0,8542.1
568000.0,5267000.0,10025.599999999999
569000.0,5267000.0,11115.5
570000.0,5267000.0,11058.5
571000.0,5267000.0,11884.400000000001
572000.0,5267000.0,10973.099999999999
573000.0,5267000.0,10339.6
574000.0,5267000.0,10764.9
575000.0,5267000.0,11672.6
576000.0,5267000.0,11556.7
577000.0,5267000.0,10290.8
578000.0,5267000.0,11440.3
579000.0,5267000.0,10280.4
580000.0,5267000.0,10094.199999999999
581000.0,5267000.0,10097.8
582000.0,5267000.0,10139.5
583000.0,5267000.0,10420.2
584000.0,5267000.0,11724.400000000001
585000.0,5267000.0,6675.700000000001
586000.0,5267000.0,7085.599999999999
587000.0,5267000.0,7081.7
588000.0,5267000.0,8525.05
589000.0,5267000.0,8365.7
590000.0,5267000.0,7339.299999999999
591000.0,5267000.0,11491.100000000002
592000.0,5267000.0,11919.0
593000.0,5267000.0,10005.5
594000.0,5267000.0,10253.400000000001
595000.0,5267000.0,9881.6
596000.0,5267000.0,9908.5
597000.0,5267000.0,10533.699999999999
598000.0,5267000.0,7985.1
599000.0,5267000.0,8693.45
600000.0,5267000.0,7642.7
601000.0,5267000.0,6751.35
602000.0,5267000.0,6547.4
603000.0,5267000.0,6931.65
604000.0,5267000.0,8701.8
605000.0,5267000.0,9294.349999999999
606000.0,5267000.0,7749.049999999999
607000.0,5267000.0,6536.950000000001
608000.0,5267000.0,6966.65
609000.0,5267000.0,7405.25
612000.0,5267000.0,8649.3
613000.0,5267000.0,7096.950000000001
614000.0,5267000.0,7185.299999999999
615000.0,5267000.0,8927.6
616000.0,5267000.0,9148.9
617000.0,5267000.0,9746.3
618000.0,5267000.0,8925.35
628000.0,5267000.0,12462.1
629000.0,5267000.0,12190.2
630000.0,5267000.0,11531.0
631000.0,5267000.0,8763.5
632000.0,5267000.0,8034.55
633000.0,5267000.0,6915.549999999999
634000.0,5267000.0,8017.3
635000.0,5267000.0,10533.400000000001
636000.0,5267000.0,8830.55
637000.0,5267000.0,9356.4
638000.0,5267000.0,10239.45
639000.0,5267000.0,9164.05
640000.0,5267000.0,8802.8
641000.0,5267000.0,8493.05
642000.0,5267000.0,7489.55
643000.0,5267000.0,6675.950000000001
644000.0,5267000.0,7547.150000000001
645000.0,5267000.0,9005.9
646000.0,5267000.0,11405.7
647000.0,5267000.0,9472.55
648000.0,5267000.0,7162.6
649000.0,5267000.0,6406.800000000001
650000.0,5267000.0,10266.0
651000.0,5267000.0,9618.45
652000.0,5267000.0,8484.3
653000.0,5267000.0,9387.25
654000.0,5267000.0,10221.65
655000.0,5267000.0,8843.05
656000.0,5267000.0,6918.9
657000.0,5267000.0,6370.599999999999
658000.0,5267000.0,11246.5
659000.0,5267000.0,9310.800000000001
660000.0,5267000.0,9344.8
661000.0,5267000.0,11762.2
662000.0,5267000.0,9375.5
663000.0,5267000.0,10214.7
664000.0,5267000.0,9888.7
665000.0,5267000.0,9222.85
666000.0,5267000.0,8731.65
667000.0,5267000.0,8320.85
668000.0,5267000.0,7694.299999999999
669000.0,5267000.0,7783.35
670000.0,5267000.0,7479.9
671000.0,5267000.0,6977.75
672000.0,5267000.0,11563.3
673000.0,5267000.0,12301.7
674000.0,5267000.0,11601.8
675000.0,5267000.0,10964.7
676000.0,5267000.0,11050.2
677000.0,5267000.0,12255.3
678000.0,5267000.0,7377.3
679000.0,5267000.0,7752.35
680000.0,5267000.0,8183.150000000001
681000.0,5267000.0,6734.099999999999
682000.0,5267000.0,12319.7
683000.0,5267000.0,6578.200000000001
684000.0,5267000.0,11194.5
685000.0,5267000.0,6921.45
686000.0,5267000.0,8831.6
687000.0,5267000.0,8982.5
688000.0,5267000.0,6616.3
689000.0,5267000.0,8214.75
690000.0,5267000.0,9199.400000000001
691000.0,5267000.0,12378.5
692000.0,5267000.0,7364.0
693000.0,5267000.0,7082.95
694000.0,5267000.0,11378.800000000001
796000.0,5267000.0,11395.85
797000.0,5267000.0,9518.9
798000.0,5267000.0,10720.75
799000.0,5267000.0,13467.0
800000.0,5267000.0,12205.95
801000.0,5267000.0,11973.050000000001
802000.0,5267000.0,9792.0
803000.0,5267000.0,10316.95
551000.0,5266000.0,6659.300000000001
555000.0,5266000.0,6672.9
563000.0,5266000.0,9820.9
564000.0,5266000.0,9511.900000000001
565000.0,5266000.0,9368.2
568000.0,5266000.0,10196.1
569000.0,5266000.0,11302.0
570000.0,5266000.0,11986.100000000002
571000.0,5266000.0,12535.900000000001
572000.0,5266000.0,10439.3
574000.0,5266000.0,10965.7
575000.0,5266000.0,10607.7
576000.0,5266000.0,9461.8
577000.0,5266000.0,9352.7
578000.0,5266000.0,11078.800000000001
579000.0,5266000.0,12451.199999999999
580000.0,5266000.0,6653.85
581000.0,5266000.0,6369.25
582000.0,5266000.0,12395.2
583000.0,5266000.0,6614.95
584000.0,5266000.0,6848.65
585000.0,5266000.0,7962.7
586000.0,5266000.0,8739.5
587000.0,5266000.0,7588.55
588000.0,5266000.0,7985.5
589000.0,5266000.0,8085.2
590000.0,5266000.0,6445.45
591000.0,5266000.0,6696.5
592000.0,5266000.0,7370.700000000001
593000.0,5266000.0,11442.8
594000.0,5266000.0,10775.1
595000.0,5266000.0,9909.3
596000.0,5266000.0,9916.900000000001
597000.0,5266000.0,10419.9
598000.0,5266000.0,12526.599999999999
599000.0,5266000.0,6680.2
600000.0,5266000.0,12211.8
601000.0,5266000.0,6677.200000000001
602000.0,5266000.0,7121.900000000001
603000.0,5266000.0,8171.3
604000.0,5266000.0,9257.949999999999
605000.0,5266000.0,8098.049999999999
606000.0,5266000.0,7078.0
607000.0,5266000.0,7147.4
608000.0,5266000.0,6575.599999999999
614000.0,5266000.0,6458.200000000001
615000.0,5266000.0,6657.799999999999
616000.0,5266000.0,7894.25
618000.0,5266000.0,8879.1
633000.0,5266000.0,8597.35
634000.0,5266000.0,7385.85
635000.0,5266000.0,7678.099999999999
636000.0,5266000.0,8471.65
637000.0,5266000.0,9319.8
638000.0,5266000.0,8200.25
639000.0,5266000.0,7526.3
643000.0,5266000.0,8560.800000000001
644000.0,5266000.0,9308.55
645000.0,5266000.0,10297.05
646000.0,5266000.0,8663.55
647000.0,5266000.0,7072.150000000001
648000.0,5266000.0,8396.55
649000.0,5266000.0,6530.25
650000.0,5266000.0,7908.5
651000.0,5266000.0,10350.85
652000.0,5266000.0,10200.650000000001
653000.0,5266000.0,10057.85
654000.0,5266000.0,7675.700000000001
655000.0,5266000.0,6912.7
656000.0,5266000.0,11883.400000000001
657000.0,5266000.0,11494.8
658000.0,5266000.0,10126.900000000001
659000.0,5266000.0,9355.5
660000.0,5266000.0,9860.9
661000.0,5266000.0,6672.05
662000.0,5266000.0,10330.0
663000.0,5266000.0,8654.349999999999
664000.0,5266000.0,7373.0
665000.0,5266000.0,7698.75
666000.0,5266000.0,7812.1
667000.0,5266000.0,6890.5
668000.0,5266000.0,7802.9
669000.0,5266000.0,7134.6
670000.0,5266000.0,6594.400000000001
671000.0,5266000.0,6846.900000000001
672000.0,5266000.0,11352.3
673000.0,5266000.0,11123.800000000001
674000.0,5266000.0,11338.2
675000.0,5266000.0,12060.599999999999
676000.0,5266000.0,6395.5
677000.0,5266000.0,9183.300000000001
678000.0,5266000.0,9380.35
679000.0,5266000.0,7040.2
680000.0,5266000.0,6525.950000000001
681000.0,5266000.0,7391.35
682000.0,5266000.0,8018.85
683000.0,5266000.0,6335.599999999999
684000.0,5266000.0,11326.0
685000.0,5266000.0,8282.8
686000.0,5266000.0,9197.75
687000.0,5266000.0,8942.65
688000.0,5266000.0,8515.449999999999
689000.0,5266000.0,7846.849999999999
690000.0,5266000.0,8199.65
691000.0,5266000.0,8069.0
692000.0,5266000.0,8208.0
693000.0,5266000.0,8212.45
798000.0,5266000.0,11897.4
799000.0,5266000.0,12574.449999999999
801000.0,5266000.0,12264.55
802000.0,5266000.0,11061.300000000001
555000.0,5265000.0,6623.5
565000.0,5265000.0,8771.2
569000.0,5265000.0,12151.100000000002
570000.0,5265000.0,6425.35
573000.0,5265000.0,9573.6
574000.0,5265000.0,8984.0
575000.0,5265000.0,9124.5
576000.0,5265000.0,10743.3
577000.0,5265000.0,10925.7
578000.0,5265000.0,10730.7
579000.0,5265000.0,11614.6
580000.0,5265000.0,11218.400000000001
581000.0,5265000.0,6776.900000000001
582000.0,5265000.0,6920.25
583000.0,5265000.0,8373.6
584000.0,5265000.0,8123.0
585000.0,5265000.0,7155.75
586000.0,5265000.0,7180.549999999999
587000.0,5265000.0,7538.3
588000.0,5265000.0,7781.900000000001
589000.0,5265000.0,7078.55
590000.0,5265000.0,7825.900000000001
591000.0,5265000.0,8535.35
592000.0,5265000.0,7186.599999999999
593000.0,5265000.0,11957.6
594000.0,5265000.0,10861.599999999999
595000.0,5265000.0,9946.3
596000.0,5265000.0,10002.4
597000.0,5265000.0,10166.8
598000.0,5265000.0,10444.0
599000.0,5265000.0,12479.2
600000.0,5265000.0,6884.95
601000.0,5265000.0,6988.3
602000.0,5265000.0,8153.9
603000.0,5265000.0,8906.699999999999
604000.0,5265000.0,8525.599999999999
605000.0,5265000.0,8317.0
606000.0,5265000.0,7695.2
607000.0,5265000.0,6738.049999999999
608000.0,5265000.0,6868.65
633000.0,5265000.0,9971.8
634000.0,5265000.0,8164.2
635000.0,5265000.0,9525.9
636000.0,5265000.0,9324.25
643000.0,5265000.0,7713.200000000001
644000.0,5265000.0,11116.35
645000.0,5265000.0,9411.75
646000.0,5265000.0,8136.5
647000.0,5265000.0,9659.550000000001
648000.0,5265000.0,9620.85
649000.0,5265000.0,7440.15
650000.0,5265000.0,7730.900000000001
651000.0,5265000.0,9169.0
652000.0,5265000.0,8486.0
653000.0,5265000.0,7969.450000000001
654000.0,5265000.0,7903.35
655000.0,5265000.0,7434.55
656000.0,5265000.0,7577.35
657000.0,5265000.0,10799.7
658000.0,5265000.0,9565.599999999999
659000.0,5265000.0,9413.7
660000.0,5265000.0,11479.099999999999
661000.0,5265000.0,8420.5
662000.0,5265000.0,7612.05
663000.0,5265000.0,7699.650000000001
664000.0,5265000.0,8441.95
665000.0,5265000.0,8147.799999999999
666000.0,5265000.0,7902.3
667000.0,5265000.0,6918.95
668000.0,5265000.0,6561.950000000001
669000.0,5265000.0,12200.0
670000.0,5265000.0,11991.7
671000.0,5265000.0,11414.400000000001
672000.0,5265000.0,11277.4
673000.0,5265000.0,11275.900000000001
674000.0,5265000.0,6403.150000000001
675000.0,5265000.0,6910.45
676000.0,5265000.0,8842.85
677000.0,5265000.0,8551.4
678000.0,5265000.0,7381.15
679000.0,5265000.0,7116.65
680000.0,5265000.0,7555.15
681000.0,5265000.0,9903.9
682000.0,5265000.0,7800.950000000001
683000.0,5265000.0,12262.2
685000.0,5265000.0,6848.049999999999
686000.0,5265000.0,9386.900000000001
687000.0,5265000.0,10305.95
688000.0,5265000.0,8990.55
689000.0,5265000.0,8038.5
690000.0,5265000.0,10330.25
691000.0,5265000.0,9981.95
802000.0,5265000.0,12118.4
573000.0,5264000.0,8706.5
574000.0,5264000.0,9786.5
575000.0,5264000.0,11936.5
576000.0,5264000.0,11910.5
577000.0,5264000.0,11807.6
578000.0,5264000.0,11453.800000000001
579000.0,5264000.0,10895.7
580000.0,5264000.0,12323.800000000001
581000.0,5264000.0,8073.9
582000.0,5264000.0,7303.25
583000.0,5264000.0,7029.049999999999
584000.0,5264000.0,7038.5
585000.0,5264000.0,7601.549999999999
586000.0,5264000.0,6996.5
587000.0,5264000.0,8290.0
588000.0,5264000.0,8699.550000000001
589000.0,5264000.0,9015.2
590000.0,5264000.0,8260.3
591000.0,5264000.0,7110.650000000001
592000.0,5264000.0,12339.099999999999
593000.0,5264000.0,11550.1
594000.0,5264000.0,11018.2
595000.0,5264000.0,9963.5
596000.0,5264000.0,10021.5
597000.0,5264000.0,10081.2
598000.0,5264000.0,10279.099999999999
599000.0,5264000.0,12387.1
600000.0,5264000.0,7140.25
601000.0,5264000.0,7439.700000000001
602000.0,5264000.0,7780.1
603000.0,5264000.0,7876.549999999999
604000.0,5264000.0,8069.95
605000.0,5264000.0,8846.1
606000.0,5264000.0,7177.55
607000.0,5264000.0,6927.1
608000.0,5264000.0,7474.2
634000.0,5264000.0,8956.75
645000.0,5264000.0,9380.1
646000.0,5264000.0,9381.25
647000.0,5264000.0,10755.45
648000.0,5264000.0,10127.5
649000.0,5264000.0,8250.85
650000.0,5264000.0,7419.650000000001
651000.0,5264000.0,9641.95
652000.0,5264000.0,9694.85
653000.0,5264000.0,9346.75
654000.0,5264000.0,10388.600000000002
655000.0,5264000.0,9692.9
656000.0,5264000.0,7296.3
657000.0,5264000.0,9946.4
658000.0,5264000.0,9493.2
659000.0,5264000.0,10330.3
660000.0,5264000.0,7017.25
661000.0,5264000.0,9134.15
662000.0,5264000.0,8851.8
663000.0,5264000.0,8085.8
664000.0,5264000.0,8735.95
665000.0,5264000.0,8918.4
666000.0,5264000.0,7504.2
667000.0,5264000.0,7491.1
668000.0,5264000.0,7032.200000000001
669000.0,5264000.0,11582.1
670000.0,5264000.0,11591.7
671000.0,5264000.0,11465.4
672000.0,5264000.0,11231.5
673000.0,5264000.0,12168.400000000001
674000.0,5264000.0,7461.3
675000.0,5264000.0,8087.7
676000.0,5264000.0,10763.899999999998
677000.0,5264000.0,7695.900000000001
678000.0,5264000.0,8288.25
679000.0,5264000.0,9328.55
680000.0,5264000.0,10086.25
681000.0,5264000.0,8582.0
682000.0,5264000.0,6358.8
574000.0,5263000.0,12052.1
575000.0,5263000.0,6442.85
576000.0,5263000.0,6763.8
577000.0,5263000.0,6395.299999999999
578000.0,5263000.0,6870.349999999999
579000.0,5263000.0,10787.1
580000.0,5263000.0,6800.45
581000.0,5263000.0,11991.900000000001
582000.0,5263000.0,11919.7
583000.0,5263000.0,6877.45
584000.0,5263000.0,7659.650000000001
585000.0,5263000.0,8462.0
586000.0,5263000.0,8422.15
587000.0,5263000.0,9664.85
588000.0,5263000.0,8313.4
589000.0,5263000.0,7246.5
590000.0,5263000.0,6732.65
591000.0,5263000.0,11756.199999999999
592000.0,5263000.0,12353.800000000001
593000.0,5263000.0,12190.3
594000.0,5263000.0,10590.0
595000.0,5263000.0,9989.400000000001
596000.0,5263000.0,10067.9
597000.0,5263000.0,10149.199999999999
598000.0,5263000.0,10214.1
599000.0,5263000.0,11551.5
600000.0,5263000.0,12470.8
601000.0,5263000.0,6384.300000000001
602000.0,5263000.0,12496.599999999999
603000.0,5263000.0,12055.1
604000.0,5263000.0,11804.5
605000.0,5263000.0,6794.75
606000.0,5263000.0,7199.450000000001
607000.0,5263000.0,7792.65
608000.0,5263000.0,8975.9
642000.0,5263000.0,7684.15
643000.0,5263000.0,10099.0
644000.0,5263000.0,10250.4
645000.0,5263000.0,9217.0
646000.0,5263000.0,7951.5
647000.0,5263000.0,8362.9
648000.0,5263000.0,8190.75
649000.0,5263000.0,7166.2
650000.0,5263000.0,8354.05
651000.0,5263000.0,10144.75
652000.0,5263000.0,8341.65
653000.0,5263000.0,9331.05
654000.0,5263000.0,9154.95
655000.0,5263000.0,7515.25
656000.0,5263000.0,11884.2
657000.0,5263000.0,9585.1
658000.0,5263000.0,9609.1
659000.0,5263000.0,10663.400000000001
660000.0,5263000.0,6835.299999999999
661000.0,5263000.0,7865.299999999999
662000.0,5263000.0,8208.2
663000.0,5263000.0,7996.0
664000.0,5263000.0,6657.9
665000.0,5263000.0,6515.0
666000.0,5263000.0,7048.0
667000.0,5263000.0,7205.1
668000.0,5263000.0,6674.95
669000.0,5263000.0,11499.0
670000.0,5263000.0,11537.3
671000.0,5263000.0,11609.3
672000.0,5263000.0,11372.3
673000.0,5263000.0,6812.65
674000.0,5263000.0,8588.6
675000.0,5263000.0,9085.85
676000.0,5263000.0,10397.4
677000.0,5263000.0,8167.4
678000.0,5263000.0,9984.45
679000.0,5263000.0,10998.0
680000.0,5263000.0,9588.25
681000.0,5263000.0,7549.2
575000.0,5262000.0,7135.349999999999
576000.0,5262000.0,7785.85
577000.0,5262000.0,6894.5
578000.0,5262000.0,6505.599999999999
579000.0,5262000.0,12009.6
580000.0,5262000.0,12226.5
581000.0,5262000.0,6592.9
582000.0,5262000.0,7784.15
583000.0,5262000.0,9138.95
584000.0,5262000.0,8664.3
585000.0,5262000.0,8966.5
586000.0,5262000.0,8278.2
587000.0,5262000.0,7023.65
588000.0,5262000.0,12484.2
589000.0,5262000.0,12172.2
590000.0,5262000.0,12014.3
591000.0,5262000.0,6802.55
592000.0,5262000.0,7121.799999999999
593000.0,5262000.0,11683.800000000001
594000.0,5262000.0,10235.4
595000.0,5262000.0,10518.400000000001
596000.0,5262000.0,10013.4
597000.0,5262000.0,10559.3
598000.0,5262000.0,10963.099999999999
599000.0,5262000.0,10721.300000000001
600000.0,5262000.0,10367.5
601000.0,5262000.0,10453.600000000002
602000.0,5262000.0,10540.599999999999
603000.0,5262000.0,10685.7
604000.0,5262000.0,10840.4
605000.0,5262000.0,12404.099999999999
606000.0,5262000.0,8587.45
607000.0,5262000.0,9152.25
641000.0,5262000.0,6814.75
642000.0,5262000.0,10042.6
643000.0,5262000.0,8695.55
644000.0,5262000.0,8559.15
645000.0,5262000.0,6996.1
646000.0,5262000.0,7040.8
647000.0,5262000.0,6420.4
648000.0,5262000.0,6450.85
649000.0,5262000.0,9084.9
650000.0,5262000.0,8269.199999999999
651000.0,5262000.0,7943.150000000001
652000.0,5262000.0,6922.95
653000.0,5262000.0,7111.549999999999
654000.0,5262000.0,12640.1
655000.0,5262000.0,10791.100000000002
656000.0,5262000.0,9721.4
657000.0,5262000.0,9629.5
658000.0,5262000.0,9712.9
659000.0,5262000.0,9766.3
660000.0,5262000.0,10997.6
661000.0,5262000.0,6339.9
662000.0,5262000.0,6542.200000000001
663000.0,5262000.0,12149.5
664000.0,5262000.0,11386.900000000001
665000.0,5262000.0,11790.3
666000.0,5262000.0,11635.0
667000.0,5262000.0,12030.0
668000.0,5262000.0,12400.900000000001
669000.0,5262000.0,12084.9
670000.0,5262000.0,11665.599999999999
671000.0,5262000.0,12195.900000000001
672000.0,5262000.0,11818.699999999999
673000.0,5262000.0,7155.75
674000.0,5262000.0,10348.55
675000.0,5262000.0,9873.099999999999
676000.0,5262000.0,10148.099999999999
677000.0,5262000.0,10035.35
678000.0,5262000.0,10450.55
679000.0,5262000.0,9252.15
680000.0,5262000.0,7378.8
575000.0,5261000.0,7262.150000000001
576000.0,5261000.0,7292.4
577000.0,5261000.0,7168.099999999999
578000.0,5261000.0,6992.849999999999
579000.0,5261000.0,6814.95
580000.0,5261000.0,7567.35
581000.0,5261000.0,8980.05
582000.0,5261000.0,9567.7
583000.0,5261000.0,9218.099999999999
584000.0,5261000.0,7949.0
585000.0,5261000.0,7199.0
586000.0,5261000.0,6521.65
587000.0,5261000.0,7570.950000000001
588000.0,5261000.0,6974.9
589000.0,5261000.0,7649.55
590000.0,5261000.0,6393.8
591000.0,5261000.0,7959.099999999999
592000.0,5261000.0,7083.95
593000.0,5261000.0,11206.300000000001
594000.0,5261000.0,11062.4
595000.0,5261000.0,10588.3
596000.0,5261000.0,10054.3
597000.0,5261000.0,10781.7
598000.0,5261000.0,11456.399999999998
599000.0,5261000.0,11750.1
600000.0,5261000.0,6387.6
601000.0,5261000.0,12637.7
602000.0,5261000.0,6603.049999999999
603000.0,5261000.0,6442.1
604000.0,5261000.0,11725.599999999999
605000.0,5261000.0,11591.5
606000.0,5261000.0,8656.6
607000.0,5261000.0,8988.8
608000.0,5261000.0,9767.1
641000.0,5261000.0,6898.5
642000.0,5261000.0,7914.400000000001
643000.0,5261000.0,6666.45
644000.0,5261000.0,12007.1
645000.0,5261000.0,11637.3
646000.0,5261000.0,11203.699999999999
647000.0,5261000.0,12231.100000000002
648000.0,5261000.0,12274.7
649000.0,5261000.0,10898.5
650000.0,5261000.0,11855.3
651000.0,5261000.0,11102.8
652000.0,5261000.0,11102.2
653000.0,5261000.0,10127.0
654000.0,5261000.0,10453.400000000001
655000.0,5261000.0,9869.6
656000.0,5261000.0,9799.400000000001
657000.0,5261000.0,9722.5
658000.0,5261000.0,9882.4
659000.0,5261000.0,9954.400000000001
660000.0,5261000.0,9924.199999999999
661000.0,5261000.0,10106.900000000001
662000.0,5261000.0,10709.0
663000.0,5261000.0,6503.0
664000.0,5261000.0,12312.5
665000.0,5261000.0,6653.5
666000.0,5261000.0,7013.6
667000.0,5261000.0,6884.55
668000.0,5261000.0,12503.400000000001
669000.0,5261000.0,12285.8
670000.0,5261000.0,12004.8
671000.0,5261000.0,12525.7
672000.0,5261000.0,11604.0
673000.0,5261000.0,6877.55
674000.0,5261000.0,8358.35
675000.0,5261000.0,8775.35
676000.0,5261000.0,9747.45
677000.0,5261000.0,11300.900000000001
678000.0,5261000.0,10730.95
679000.0,5261000.0,8188.75
575000.0,5260000.0,7442.65
576000.0,5260000.0,7741.4
577000.0,5260000.0,7771.0
578000.0,5260000.0,9390.449999999999
579000.0,5260000.0,9215.05
580000.0,5260000.0,8837.75
581000.0,5260000.0,8422.55
582000.0,5260000.0,9037.9
583000.0,5260000.0,8031.4
584000.0,5260000.0,8508.55
585000.0,5260000.0,7930.1
586000.0,5260000.0,8636.95
587000.0,5260000.0,7817.3
588000.0,5260000.0,8110.950000000001
589000.0,5260000.0,7136.950000000001
590000.0,5260000.0,7283.35
591000.0,5260000.0,8366.699999999999
592000.0,5260000.0,6777.150000000001
593000.0,5260000.0,11145.4
594000.0,5260000.0,10725.8
595000.0,5260000.0,10766.300000000001
596000.0,5260000.0,10080.800000000001
597000.0,5260000.0,10320.8
598000.0,5260000.0,11894.3
599000.0,5260000.0,12332.1
600000.0,5260000.0,6906.0
601000.0,5260000.0,7335.15
602000.0,5260000.0,8394.400000000001
603000.0,5260000.0,7541.849999999999
604000.0,5260000.0,11912.9
605000.0,5260000.0,11506.0
606000.0,5260000.0,6541.549999999999
607000.0,5260000.0,8913.65
608000.0,5260000.0,10146.5
609000.0,5260000.0,10925.85
646000.0,5260000.0,11210.599999999999
647000.0,5260000.0,11670.1
648000.0,5260000.0,12632.1
649000.0,5260000.0,6474.6
650000.0,5260000.0,12092.2
651000.0,5260000.0,11095.2
652000.0,5260000.0,10260.0
653000.0,5260000.0,10132.7
654000.0,5260000.0,10042.9
655000.0,5260000.0,9998.2
656000.0,5260000.0,10494.6
657000.0,5260000.0,12307.6
658000.0,5260000.0,11522.3
659000.0,5260000.0,11436.100000000002
660000.0,5260000.0,12161.900000000001
661000.0,5260000.0,12426.5
662000.0,5260000.0,7174.9
663000.0,5260000.0,7611.65
664000.0,5260000.0,7247.5
665000.0,5260000.0,6995.349999999999
666000.0,5260000.0,6546.0
667000.0,5260000.0,6462.200000000001
668000.0,5260000.0,6484.049999999999
669000.0,5260000.0,6405.85
670000.0,5260000.0,12458.0
671000.0,5260000.0,12570.4
672000.0,5260000.0,11710.4
673000.0,5260000.0,6460.900000000001
674000.0,5260000.0,7535.900000000001
675000.0,5260000.0,7499.049999999999
676000.0,5260000.0,8249.85
677000.0,5260000.0,8627.0
678000.0,5260000.0,8425.0
679000.0,5260000.0,7180.700000000001
580000.0,5259000.0,6973.5
581000.0,5259000.0,6955.2
582000.0,5259000.0,7705.599999999999
583000.0,5259000.0,9557.45
584000.0,5259000.0,9314.05
585000.0,5259000.0,9656.5
586000.0,5259000.0,8726.95
587000.0,5259000.0,8150.05
588000.0,5259000.0,7441.35
589000.0,5259000.0,6947.7
590000.0,5259000.0,8173.85
591000.0,5259000.0,8353.65
592000.0,5259000.0,6748.55
593000.0,5259000.0,11188.800000000001
594000.0,5259000.0,10684.3
595000.0,5259000.0,10727.7
596000.0,5259000.0,10122.4
597000.0,5259000.0,10830.599999999999
598000.0,5259000.0,12002.7
599000.0,5259000.0,6497.3
600000.0,5259000.0,7416.0
601000.0,5259000.0,8162.35
602000.0,5259000.0,8059.2
603000.0,5259000.0,6517.25
604000.0,5259000.0,8479.85
605000.0,5259000.0,6960.1
606000.0,5259000.0,11255.2
607000.0,5259000.0,12599.400000000001
608000.0,5259000.0,7047.3
609000.0,5259000.0,8365.7
610000.0,5259000.0,9253.150000000001
646000.0,5259000.0,12538.899999999998
647000.0,5259000.0,7901.549999999999
648000.0,5259000.0,6934.450000000001
649000.0,5259000.0,6575.0
650000.0,5259000.0,12351.900000000001
651000.0,5259000.0,10921.8
652000.0,5259000.0,10953.699999999999
653000.0,5259000.0,10974.2
654000.0,5259000.0,10315.599999999999
655000.0,5259000.0,11379.400000000001
656000.0,5259000.0,12529.099999999999
657000.0,5259000.0,7232.55
658000.0,5259000.0,7615.25
659000.0,5259000.0,7127.6
660000.0,5259000.0,11379.6
661000.0,5259000.0,6742.1
662000.0,5259000.0,6510.599999999999
663000.0,5259000.0,6510.349999999999
664000.0,5259000.0,12302.1
665000.0,5259000.0,12626.5
666000.0,5259000.0,7126.65
667000.0,5259000.0,6937.75
668000.0,5259000.0,7204.650000000001
669000.0,5259000.0,7205.900000000001
670000.0,5259000.0,6497.05
671000.0,5259000.0,12213.099999999999
672000.0,5259000.0,11702.3
673000.0,5259000.0,7833.8
674000.0,5259000.0,9149.85
675000.0,5259000.0,10187.6
676000.0,5259000.0,10162.85
677000.0,5259000.0,9093.55
678000.0,5259000.0,8823.2
679000.0,5259000.0,7804.099999999999
680000.0,5259000.0,8547.45
681000.0,5259000.0,8439.5
580000.0,5258000.0,7563.049999999999
581000.0,5258000.0,8347.85
582000.0,5258000.0,8641.25
583000.0,5258000.0,7688.0
584000.0,5258000.0,7626.25
585000.0,5258000.0,7772.799999999999
586000.0,5258000.0,9529.05
587000.0,5258000.0,8292.5
588000.0,5258000.0,7275.700000000001
589000.0,5258000.0,8623.5
590000.0,5258000.0,8107.3
591000.0,5258000.0,9013.4
592000.0,5258000.0,7332.3
593000.0,5258000.0,11401.0
594000.0,5258000.0,10948.099999999999
595000.0,5258000.0,10565.4
596000.0,5258000.0,10179.199999999999
597000.0,5258000.0,10947.2
598000.0,5258000.0,12125.3
599000.0,5258000.0,6673.049999999999
600000.0,5258000.0,8022.9
601000.0,5258000.0,8683.6
602000.0,5258000.0,6713.9
603000.0,5258000.0,9145.55
604000.0,5258000.0,10191.6
605000.0,5258000.0,8745.05
606000.0,5258000.0,7094.450000000001
607000.0,5258000.0,11383.699999999999
608000.0,5258000.0,12115.900000000001
609000.0,5258000.0,8347.8
610000.0,5258000.0,10231.900000000001
647000.0,5258000.0,7548.95
648000.0,5258000.0,12374.6
649000.0,5258000.0,12375.4
650000.0,5258000.0,12540.5
651000.0,5258000.0,6447.3
652000.0,5258000.0,6746.15
653000.0,5258000.0,6958.200000000001
654000.0,5258000.0,11979.400000000001
655000.0,5258000.0,7132.799999999999
656000.0,5258000.0,7920.2
657000.0,5258000.0,8769.75
658000.0,5258000.0,7795.299999999999
659000.0,5258000.0,7033.75
660000.0,5258000.0,11086.7
661000.0,5258000.0,12502.0
662000.0,5258000.0,7471.05
663000.0,5258000.0,7221.65
664000.0,5258000.0,6909.049999999999
665000.0,5258000.0,6506.25
666000.0,5258000.0,7252.9
667000.0,5258000.0,7587.3
668000.0,5258000.0,8105.15
669000.0,5258000.0,7181.7
670000.0,5258000.0,6558.150000000001
671000.0,5258000.0,12128.400000000001
672000.0,5258000.0,11950.900000000001
673000.0,5258000.0,6896.5
674000.0,5258000.0,7835.8
675000.0,5258000.0,9133.95
676000.0,5258000.0,12044.6
677000.0,5258000.0,11153.45
678000.0,5258000.0,9993.0
679000.0,5258000.0,8515.4
680000.0,5258000.0,9738.05
681000.0,5258000.0,10725.8
682000.0,5258000.0,10981.95
581000.0,5257000.0,6801.2
582000.0,5257000.0,6423.050000000001
583000.0,5257000.0,6507.0
584000.0,5257000.0,6567.200000000001
585000.0,5257000.0,6732.75
586000.0,5257000.0,7483.25
587000.0,5257000.0,9119.0
588000.0,5257000.0,8725.05
589000.0,5257000.0,9029.85
590000.0,5257000.0,8118.85
591000.0,5257000.0,8971.35
592000.0,5257000.0,7013.25
593000.0,5257000.0,11387.3
594000.0,5257000.0,11018.400000000001
595000.0,5257000.0,10483.2
596000.0,5257000.0,10250.1
597000.0,5257000.0,10743.2
598000.0,5257000.0,11661.0
599000.0,5257000.0,7592.25
600000.0,5257000.0,9122.65
601000.0,5257000.0,8250.449999999999
602000.0,5257000.0,6928.9
603000.0,5257000.0,10804.45
604000.0,5257000.0,11173.2
605000.0,5257000.0,9931.900000000001
606000.0,5257000.0,7386.900000000001
607000.0,5257000.0,7575.05
608000.0,5257000.0,12398.5
609000.0,5257000.0,7287.200000000001
610000.0,5257000.0,9622.65
648000.0,5257000.0,8027.6
649000.0,5257000.0,6767.150000000001
650000.0,5257000.0,7241.950000000001
651000.0,5257000.0,7529.700000000001
652000.0,5257000.0,9730.75
653000.0,5257000.0,10003.65
654000.0,5257000.0,7194.349999999999
655000.0,5257000.0,9428.85
656000.0,5257000.0,8388.0
657000.0,5257000.0,7905.8
658000.0,5257000.0,6988.75
659000.0,5257000.0,12086.199999999999
660000.0,5257000.0,7421.0
661000.0,5257000.0,7457.6
662000.0,5257000.0,7353.85
663000.0,5257000.0,7631.2
664000.0,5257000.0,7331.05
665000.0,5257000.0,6924.400000000001
666000.0,5257000.0,6570.8
667000.0,5257000.0,7389.400000000001
668000.0,5257000.0,7334.700000000001
669000.0,5257000.0,6769.099999999999
670000.0,5257000.0,6356.0
671000.0,5257000.0,11744.7
672000.0,5257000.0,6873.85
673000.0,5257000.0,8727.7
674000.0,5257000.0,8527.4
675000.0,5257000.0,10443.75
583000.0,5256000.0,7650.4
584000.0,5256000.0,7717.7
585000.0,5256000.0,6800.25
586000.0,5256000.0,7626.799999999999
587000.0,5256000.0,9527.4
588000.0,5256000.0,9472.85
589000.0,5256000.0,8735.05
590000.0,5256000.0,9174.6
591000.0,5256000.0,7287.9
592000.0,5256000.0,6369.400000000001
593000.0,5256000.0,11365.0
594000.0,5256000.0,11411.599999999999
595000.0,5256000.0,11488.600000000002
596000.0,5256000.0,10259.0
597000.0,5256000.0,10847.3
598000.0,5256000.0,12029.5
599000.0,5256000.0,8636.15
600000.0,5256000.0,10269.099999999999
601000.0,5256000.0,8435.800000000001
602000.0,5256000.0,6973.099999999999
603000.0,5256000.0,8907.55
604000.0,5256000.0,10100.800000000001
605000.0,5256000.0,10217.6
606000.0,5256000.0,10625.85
607000.0,5256000.0,8381.25
608000.0,5256000.0,6369.0
609000.0,5256000.0,8143.7
610000.0,5256000.0,8422.949999999999
649000.0,5256000.0,8597.5
650000.0,5256000.0,8789.8
651000.0,5256000.0,10674.05
652000.0,5256000.0,11064.3
653000.0,5256000.0,8046.15
654000.0,5256000.0,9948.8
655000.0,5256000.0,10797.2
656000.0,5256000.0,9680.1
657000.0,5256000.0,7850.2
658000.0,5256000.0,7702.35
659000.0,5256000.0,11661.100000000002
660000.0,5256000.0,7310.1
661000.0,5256000.0,8646.45
662000.0,5256000.0,8206.2
663000.0,5256000.0,8888.75
664000.0,5256000.0,8657.8
665000.0,5256000.0,8010.700000000001
666000.0,5256000.0,7567.799999999999
667000.0,5256000.0,6651.3
668000.0,5256000.0,6869.299999999999
669000.0,5256000.0,6640.2
670000.0,5256000.0,12352.4
671000.0,5256000.0,11799.400000000001
672000.0,5256000.0,8430.15
673000.0,5256000.0,11176.399999999998
674000.0,5256000.0,10989.05
583000.0,5255000.0,7898.65
584000.0,5255000.0,8594.3
585000.0,5255000.0,7856.799999999999
586000.0,5255000.0,7145.05
587000.0,5255000.0,8118.200000000001
588000.0,5255000.0,9074.6
589000.0,5255000.0,8833.0
590000.0,5255000.0,8763.65
591000.0,5255000.0,7804.95
592000.0,5255000.0,6940.950000000001
593000.0,5255000.0,11822.7
594000.0,5255000.0,10984.8
595000.0,5255000.0,10584.6
596000.0,5255000.0,10301.900000000001
597000.0,5255000.0,11155.0
598000.0,5255000.0,11849.6
599000.0,5255000.0,7751.1
600000.0,5255000.0,9796.3
601000.0,5255000.0,9665.1
602000.0,5255000.0,8137.75
603000.0,5255000.0,10333.0
604000.0,5255000.0,12024.849999999999
605000.0,5255000.0,10748.699999999999
606000.0,5255000.0,10179.5
607000.0,5255000.0,8915.3
608000.0,5255000.0,7174.6
609000.0,5255000.0,9217.7
610000.0,5255000.0,10165.25
611000.0,5255000.0,10890.8
650000.0,5255000.0,10445.55
651000.0,5255000.0,12732.449999999999
652000.0,5255000.0,10167.2
653000.0,5255000.0,10490.2
654000.0,5255000.0,11966.45
655000.0,5255000.0,12408.099999999999
656000.0,5255000.0,10667.150000000001
657000.0,5255000.0,9744.7
658000.0,5255000.0,7745.15
659000.0,5255000.0,6592.200000000001
660000.0,5255000.0,8507.7
661000.0,5255000.0,10205.9
662000.0,5255000.0,9349.15
663000.0,5255000.0,10396.8
664000.0,5255000.0,10643.699999999999
665000.0,5255000.0,12252.85
670000.0,5255000.0,12100.1
671000.0,5255000.0,6715.85
672000.0,5255000.0,10960.650000000001
583000.0,5254000.0,7928.35
584000.0,5254000.0,8587.9
585000.0,5254000.0,7466.599999999999
586000.0,5254000.0,6999.6
587000.0,5254000.0,7297.849999999999
588000.0,5254000.0,8109.95
589000.0,5254000.0,7957.799999999999
590000.0,5254000.0,7501.05
591000.0,5254000.0,7700.349999999999
592000.0,5254000.0,8052.55
593000.0,5254000.0,6914.349999999999
594000.0,5254000.0,6564.25
595000.0,5254000.0,12305.4
596000.0,5254000.0,10402.9
597000.0,5254000.0,10447.7
598000.0,5254000.0,6684.700000000001
599000.0,5254000.0,7443.95
600000.0,5254000.0,9859.15
601000.0,5254000.0,9729.95
602000.0,5254000.0,8597.45
603000.0,5254000.0,11511.55
604000.0,5254000.0,10735.85
605000.0,5254000.0,9951.05
606000.0,5254000.0,8574.349999999999
607000.0,5254000.0,6914.5
608000.0,5254000.0,8769.65
609000.0,5254000.0,8649.199999999999
610000.0,5254000.0,10539.8
650000.0,5254000.0,14955.4
651000.0,5254000.0,12839.75
652000.0,5254000.0,12663.45
653000.0,5254000.0,14674.300000000001
654000.0,5254000.0,13407.95
655000.0,5254000.0,12617.9
656000.0,5254000.0,10872.1
657000.0,5254000.0,8820.4
658000.0,5254000.0,6952.5
659000.0,5254000.0,9160.3
660000.0,5254000.0,10287.5
661000.0,5254000.0,10214.5
662000.0,5254000.0,12065.1
669000.0,5254000.0,8763.05
670000.0,5254000.0,12099.2
671000.0,5254000.0,6614.9
672000.0,5254000.0,8918.65
583000.0,5253000.0,8312.2
584000.0,5253000.0,8281.8
585000.0,5253000.0,8180.75
586000.0,5253000.0,8211.699999999999
587000.0,5253000.0,8007.9
588000.0,5253000.0,7803.5
589000.0,5253000.0,9222.55
590000.0,5253000.0,8632.2
591000.0,5253000.0,7978.049999999999
592000.0,5253000.0,7469.349999999999
593000.0,5253000.0,12234.0
594000.0,5253000.0,6356.35
595000.0,5253000.0,10537.7
596000.0,5253000.0,10485.599999999999
597000.0,5253000.0,10513.0
598000.0,5253000.0,6938.55
599000.0,5253000.0,10151.4
600000.0,5253000.0,10101.45
601000.0,5253000.0,11531.5
602000.0,5253000.0,11903.4
603000.0,5253000.0,10803.2
604000.0,5253000.0,8617.55
605000.0,5253000.0,7489.75
606000.0,5253000.0,7151.799999999999
607000.0,5253000.0,7565.349999999999
608000.0,5253000.0,9612.85
609000.0,5253000.0,9247.15
649000.0,5253000.0,14319.75
650000.0,5253000.0,13468.050000000001
651000.0,5253000.0,12733.699999999999
652000.0,5253000.0,12903.25
653000.0,5253000.0,11605.0
654000.0,5253000.0,9909.95
655000.0,5253000.0,8893.45
656000.0,5253000.0,7472.849999999999
657000.0,5253000.0,8633.0
658000.0,5253000.0,9070.4
659000.0,5253000.0,9055.599999999999
660000.0,5253000.0,11973.150000000001
669000.0,5253000.0,7804.9
670000.0,5253000.0,12067.9
671000.0,5253000.0,6529.55
672000.0,5253000.0,9126.95
583000.0,5252000.0,7403.0
584000.0,5252000.0,8102.45
585000.0,5252000.0,8680.800000000001
586000.0,5252000.0,8899.400000000001
587000.0,5252000.0,8100.1
588000.0,5252000.0,7750.25
589000.0,5252000.0,8240.800000000001
590000.0,5252000.0,8294.3
591000.0,5252000.0,8036.75
592000.0,5252000.0,8014.5
593000.0,5252000.0,11858.5
594000.0,5252000.0,11162.7
595000.0,5252000.0,11264.6
596000.0,5252000.0,10598.699999999999
597000.0,5252000.0,10709.3
598000.0,5252000.0,6598.200000000001
599000.0,5252000.0,8455.25
600000.0,5252000.0,10006.65
601000.0,5252000.0,9793.5
602000.0,5252000.0,10856.5
603000.0,5252000.0,8934.6
604000.0,5252000.0,7737.45
605000.0,5252000.0,9199.95
606000.0,5252000.0,9780.25
607000.0,5252000.0,7573.7
608000.0,5252000.0,9914.400000000001
649000.0,5252000.0,13853.099999999999
650000.0,5252000.0,13308.900000000001
651000.0,5252000.0,12274.849999999999
652000.0,5252000.0,10550.599999999999
653000.0,5252000.0,8505.7
654000.0,5252000.0,9431.65
655000.0,5252000.0,9019.550000000001
656000.0,5252000.0,9821.05
657000.0,5252000.0,12070.1
658000.0,5252000.0,12051.15
659000.0,5252000.0,10421.399999999998
660000.0,5252000.0,13568.150000000001
668000.0,5252000.0,10563.699999999999
669000.0,5252000.0,8390.1
