x,y,z
854000.0,5846000.0,2706.61
855000.0,5846000.0,2707.22
856000.0,5846000.0,2717.9500000000003
857000.0,5846000.0,2699.44
858000.0,5846000.0,2703.18
859000.0,5846000.0,2706.45
860000.0,5846000.0,2709.8700000000003
861000.0,5846000.0,2714.64
862000.0,5846000.0,2727.72
863000.0,5846000.0,2718.04
864000.0,5846000.0,2722.0800000000004
865000.0,5846000.0,2741.64
866000.0,5846000.0,2731.3099999999995
867000.0,5846000.0,2733.34
868000.0,5846000.0,2729.76
869000.0,5846000.0,2741.17
870000.0,5846000.0,2743.48
871000.0,5846000.0,2744.52
872000.0,5846000.0,2750.7200000000003
873000.0,5846000.0,2762.29
874000.0,5846000.0,2748.4500000000003
717000.0,5845000.0,2899.3
718000.0,5845000.0,2898.46
719000.0,5845000.0,2910.7999999999997
720000.0,5845000.0,2911.1000000000004
721000.0,5845000.0,2920.92
722000.0,5845000.0,2925.2
723000.0,5845000.0,2934.7000000000003
724000.0,5845000.0,2926.3999999999996
725000.0,5845000.0,2932.9
726000.0,5845000.0,3126.01
727000.0,5845000.0,3157.1800000000003
728000.0,5845000.0,3034.95
729000.0,5845000.0,2943.6000000000004
730000.0,5845000.0,2914.88
731000.0,5845000.0,2910.91
732000.0,5845000.0,2920.8999999999996
733000.0,5845000.0,2908.19
734000.0,5845000.0,2927.87
735000.0,5845000.0,2921.6000000000004
736000.0,5845000.0,2922.1800000000003
737000.0,5845000.0,2943.51
738000.0,5845000.0,2923.97
739000.0,5845000.0,2932.7
740000.0,5845000.0,3059.5
741000.0,5845000.0,3398.42
742000.0,5845000.0,3034.6
743000.0,5845000.0,3076.03
744000.0,5845000.0,3103.6900000000005
745000.0,5845000.0,3135.2999999999997
746000.0,5845000.0,3190.4399999999996
747000.0,5845000.0,2940.33
748000.0,5845000.0,2951.7700000000004
749000.0,5845000.0,2934.4
750000.0,5845000.0,2933.2299999999996
751000.0,5845000.0,2936.5
752000.0,5845000.0,2938.2999999999997
753000.0,5845000.0,2941.06
754000.0,5845000.0,2942.5599999999995
755000.0,5845000.0,2941.6000000000004
756000.0,5845000.0,2944.8399999999997
757000.0,5845000.0,2955.54
758000.0,5845000.0,2952.6800000000003
759000.0,5845000.0,2951.0
760000.0,5845000.0,2948.5
761000.0,5845000.0,2952.91
762000.0,5845000.0,2952.7999999999997
763000.0,5845000.0,2954.9
764000.0,5845000.0,2955.1600000000003
765000.0,5845000.0,2970.7999999999997
766000.0,5845000.0,2986.36
767000.0,5845000.0,3001.46
768000.0,5845000.0,3039.2700000000004
769000.0,5845000.0,3097.1
770000.0,5845000.0,3137.4700000000003
771000.0,5845000.0,3185.9000000000005
772000.0,5845000.0,3148.5
773000.0,5845000.0,3199.38
774000.0,5845000.0,3218.0299999999997
775000.0,5845000.0,3158.7
776000.0,5845000.0,3182.02
777000.0,5845000.0,3197.7999999999997
778000.0,5845000.0,3207.04
779000.0,5845000.0,3177.8499999999995
780000.0,5845000.0,3144.01
781000.0,5845000.0,3150.9500000000003
782000.0,5845000.0,3001.0
783000.0,5845000.0,2989.58
784000.0,5845000.0,2970.0599999999995
785000.0,5845000.0,2975.1
786000.0,5845000.0,2992.55
787000.0,5845000.0,3016.01
788000.0,5845000.0,3039.1899999999996
789000.0,5845000.0,3211.44
790000.0,5845000.0,3178.9300000000003
791000.0,5845000.0,3209.0499999999997
792000.0,5845000.0,3234.5499999999997
793000.0,5845000.0,3229.3399999999997
794000.0,5845000.0,3257.99
795000.0,5845000.0,3228.34
796000.0,5845000.0,3154.79
797000.0,5845000.0,3097.76
798000.0,5845000.0,3173.84
799000.0,5845000.0,3191.2
800000.0,5845000.0,3219.8199999999997
801000.0,5845000.0,3236.1000000000004
802000.0,5845000.0,3234.0999999999995
803000.0,5845000.0,3253.1
804000.0,5845000.0,3267.83
805000.0,5845000.0,3283.64
806000.0,5845000.0,3285.98
807000.0,5845000.0,3292.0600000000004
808000.0,5845000.0,3314.91
809000.0,5845000.0,3296.1099999999997
810000.0,5845000.0,3323.79
811000.0,5845000.0,3371.7799999999997
812000.0,5845000.0,3427.79
813000.0,5845000.0,3471.61
814000.0,5845000.0,3527.6800000000003
815000.0,5845000.0,3524.7699999999995
816000.0,5845000.0,3514.5
817000.0,5845000.0,3445.8100000000004
818000.0,5845000.0,3468.4000000000005
819000.0,5845000.0,3516.2599999999998
820000.0,5845000.0,3496.2
821000.0,5845000.0,3540.8799999999997
822000.0,5845000.0,3456.2599999999998
823000.0,5845000.0,3501.35
824000.0,5845000.0,3527.5599999999995
825000.0,5845000.0,3664.31
826000.0,5845000.0,3916.37
827000.0,5845000.0,3998.88
828000.0,5845000.0,3957.2000000000003
829000.0,5845000.0,4020.87
830000.0,5845000.0,3883.4500000000003
831000.0,5845000.0,3673.4300000000003
832000.0,5845000.0,3601.21
833000.0,5845000.0,3463.6400000000003
834000.0,5845000.0,3591.35
835000.0,5845000.0,3861.2400000000002
836000.0,5845000.0,3866.2400000000002
837000.0,5845000.0,3768.0200000000004
838000.0,5845000.0,3567.71
839000.0,5845000.0,3616.96
840000.0,5845000.0,3516.5499999999997
841000.0,5845000.0,3509.02
842000.0,5845000.0,3486.04
843000.0,5845000.0,3391.7799999999997
844000.0,5845000.0,3317.58
845000.0,5845000.0,3197.01
846000.0,5845000.0,3158.15
847000.0,5845000.0,3215.0599999999995
848000.0,5845000.0,3179.4100000000003
849000.0,5845000.0,2793.7200000000003
850000.0,5845000.0,2754.93
851000.0,5845000.0,2730.5
852000.0,5845000.0,2724.2599999999998
853000.0,5845000.0,2700.6
854000.0,5845000.0,2715.2300000000005
855000.0,5845000.0,2714.0699999999997
856000.0,5845000.0,2708.0099999999998
857000.0,5845000.0,2703.2200000000003
858000.0,5845000.0,2699.7000000000003
859000.0,5845000.0,2713.07
860000.0,5845000.0,2714.75
861000.0,5845000.0,2719.1000000000004
862000.0,5845000.0,2717.9199999999996
863000.0,5845000.0,2721.15
864000.0,5845000.0,2726.2400000000002
865000.0,5845000.0,2736.71
866000.0,5845000.0,2722.8500000000004
867000.0,5845000.0,2737.01
868000.0,5845000.0,2734.67
869000.0,5845000.0,2749.61
870000.0,5845000.0,2760.38
871000.0,5845000.0,2744.3
872000.0,5845000.0,2750.87
873000.0,5845000.0,2751.0199999999995
874000.0,5845000.0,2798.66
875000.0,5845000.0,2767.83
876000.0,5845000.0,2760.68
718000.0,5844000.0,2896.42
719000.0,5844000.0,2898.5
720000.0,5844000.0,2895.8999999999996
721000.0,5844000.0,2896.5499999999997
722000.0,5844000.0,2924.5
723000.0,5844000.0,2911.32
724000.0,5844000.0,2907.2699999999995
725000.0,5844000.0,2922.9
726000.0,5844000.0,3167.3500000000004
727000.0,5844000.0,3170.5
728000.0,5844000.0,2940.85
729000.0,5844000.0,2911.9
730000.0,5844000.0,2914.81
731000.0,5844000.0,2994.6
732000.0,5844000.0,2928.2
733000.0,5844000.0,2908.08
734000.0,5844000.0,2913.36
735000.0,5844000.0,2914.8
736000.0,5844000.0,2922.52
737000.0,5844000.0,2917.19
738000.0,5844000.0,2933.12
739000.0,5844000.0,2960.5
740000.0,5844000.0,3066.0
741000.0,5844000.0,3043.36
742000.0,5844000.0,2983.6000000000004
743000.0,5844000.0,3044.33
744000.0,5844000.0,3061.61
745000.0,5844000.0,3110.2
746000.0,5844000.0,3186.1900000000005
747000.0,5844000.0,2949.43
748000.0,5844000.0,2946.03
749000.0,5844000.0,2934.7000000000003
750000.0,5844000.0,2935.97
751000.0,5844000.0,2934.72
752000.0,5844000.0,2937.2000000000003
753000.0,5844000.0,2935.56
754000.0,5844000.0,2938.66
755000.0,5844000.0,2938.0
756000.0,5844000.0,2943.4300000000003
757000.0,5844000.0,2938.7
758000.0,5844000.0,2945.04
759000.0,5844000.0,2956.3
760000.0,5844000.0,2948.2999999999997
761000.0,5844000.0,2945.27
762000.0,5844000.0,2956.6000000000004
763000.0,5844000.0,2952.21
764000.0,5844000.0,2950.41
765000.0,5844000.0,2963.2999999999997
766000.0,5844000.0,2984.0699999999997
767000.0,5844000.0,3011.3999999999996
768000.0,5844000.0,3004.3900000000003
769000.0,5844000.0,3124.9
770000.0,5844000.0,3157.6800000000003
771000.0,5844000.0,3137.67
772000.0,5844000.0,3162.2000000000003
773000.0,5844000.0,3179.24
774000.0,5844000.0,3173.55
775000.0,5844000.0,3157.3
776000.0,5844000.0,3180.4500000000003
777000.0,5844000.0,3217.78
778000.0,5844000.0,3168.6200000000003
779000.0,5844000.0,3165.36
780000.0,5844000.0,3100.8199999999997
781000.0,5844000.0,3158.2299999999996
782000.0,5844000.0,2986.3999999999996
783000.0,5844000.0,2979.2799999999997
784000.0,5844000.0,2990.42
785000.0,5844000.0,3001.65
786000.0,5844000.0,2965.7200000000003
787000.0,5844000.0,3004.8
788000.0,5844000.0,3126.0
789000.0,5844000.0,3154.2599999999998
790000.0,5844000.0,3178.67
791000.0,5844000.0,3147.3199999999997
792000.0,5844000.0,3194.31
793000.0,5844000.0,3204.29
794000.0,5844000.0,3172.84
795000.0,5844000.0,3144.4900000000002
796000.0,5844000.0,3126.9700000000003
797000.0,5844000.0,3167.3
798000.0,5844000.0,3165.6400000000003
799000.0,5844000.0,3198.86
800000.0,5844000.0,3238.1
801000.0,5844000.0,3231.9
804000.0,5844000.0,3271.9100000000003
805000.0,5844000.0,3256.0899999999997
806000.0,5844000.0,3320.04
807000.0,5844000.0,3346.44
808000.0,5844000.0,3350.5099999999998
809000.0,5844000.0,3298.96
810000.0,5844000.0,3356.2400000000002
811000.0,5844000.0,3424.52
812000.0,5844000.0,3518.7799999999997
813000.0,5844000.0,3510.69
814000.0,5844000.0,3519.5
815000.0,5844000.0,3503.85
816000.0,5844000.0,3473.12
817000.0,5844000.0,3461.7599999999998
818000.0,5844000.0,3476.0899999999997
819000.0,5844000.0,3478.88
820000.0,5844000.0,3413.37
821000.0,5844000.0,3508.1
822000.0,5844000.0,3469.7000000000003
823000.0,5844000.0,3494.09
824000.0,5844000.0,3514.52
825000.0,5844000.0,3653.9800000000005
826000.0,5844000.0,3814.35
827000.0,5844000.0,3608.53
828000.0,5844000.0,4046.34
829000.0,5844000.0,3955.91
830000.0,5844000.0,3915.8100000000004
831000.0,5844000.0,3629.8399999999997
832000.0,5844000.0,3632.17
833000.0,5844000.0,3770.87
834000.0,5844000.0,3523.41
835000.0,5844000.0,3792.14
836000.0,5844000.0,3722.1
837000.0,5844000.0,3730.83
838000.0,5844000.0,3555.56
839000.0,5844000.0,3635.17
840000.0,5844000.0,3607.0299999999997
841000.0,5844000.0,3476.94
842000.0,5844000.0,3496.13
843000.0,5844000.0,3357.55
844000.0,5844000.0,3370.19
845000.0,5844000.0,3262.88
846000.0,5844000.0,3181.4800000000005
847000.0,5844000.0,3157.45
848000.0,5844000.0,3054.76
849000.0,5844000.0,2828.33
850000.0,5844000.0,2771.0899999999997
851000.0,5844000.0,2754.64
852000.0,5844000.0,2705.66
853000.0,5844000.0,2707.88
854000.0,5844000.0,2733.0200000000004
855000.0,5844000.0,2719.0499999999997
856000.0,5844000.0,2716.7599999999998
857000.0,5844000.0,2711.47
858000.0,5844000.0,2706.15
859000.0,5844000.0,2710.6099999999997
860000.0,5844000.0,2717.3
861000.0,5844000.0,2719.93
862000.0,5844000.0,2721.3
863000.0,5844000.0,2713.47
864000.0,5844000.0,2724.51
865000.0,5844000.0,2722.7
866000.0,5844000.0,2734.14
867000.0,5844000.0,2733.86
868000.0,5844000.0,2730.6099999999997
869000.0,5844000.0,2735.7400000000002
870000.0,5844000.0,2743.4300000000003
871000.0,5844000.0,2754.16
872000.0,5844000.0,2741.42
873000.0,5844000.0,2748.44
874000.0,5844000.0,2757.69
875000.0,5844000.0,2753.7599999999998
876000.0,5844000.0,2758.97
877000.0,5844000.0,2767.87
878000.0,5844000.0,2749.5600000000004
718000.0,5843000.0,2895.5200000000004
719000.0,5843000.0,2895.6
720000.0,5843000.0,2896.0
721000.0,5843000.0,2896.82
722000.0,5843000.0,2897.7
723000.0,5843000.0,2899.92
724000.0,5843000.0,2901.0199999999995
725000.0,5843000.0,2906.8
726000.0,5843000.0,2917.09
727000.0,5843000.0,3106.7799999999997
728000.0,5843000.0,2909.88
729000.0,5843000.0,2905.8999999999996
730000.0,5843000.0,2918.21
731000.0,5843000.0,2921.42
732000.0,5843000.0,2909.1000000000004
733000.0,5843000.0,2926.36
734000.0,5843000.0,2946.04
735000.0,5843000.0,2939.7000000000003
736000.0,5843000.0,2921.25
737000.0,5843000.0,2916.7000000000003
738000.0,5843000.0,2923.86
739000.0,5843000.0,2933.0
740000.0,5843000.0,2997.0
741000.0,5843000.0,2993.87
742000.0,5843000.0,2970.7999999999997
743000.0,5843000.0,3013.7799999999997
744000.0,5843000.0,2992.3500000000004
745000.0,5843000.0,3026.2
746000.0,5843000.0,3048.0
747000.0,5843000.0,2945.0599999999995
748000.0,5843000.0,2939.4900000000002
749000.0,5843000.0,2955.6
750000.0,5843000.0,2952.59
751000.0,5843000.0,2962.79
752000.0,5843000.0,2944.2000000000003
753000.0,5843000.0,2948.8799999999997
754000.0,5843000.0,2936.7200000000003
755000.0,5843000.0,2936.9
756000.0,5843000.0,2943.8
757000.0,5843000.0,2937.9399999999996
758000.0,5843000.0,2938.46
759000.0,5843000.0,2939.3
760000.0,5843000.0,2945.5
761000.0,5843000.0,2942.75
762000.0,5843000.0,2943.6000000000004
763000.0,5843000.0,2945.1299999999997
764000.0,5843000.0,2950.68
765000.0,5843000.0,2959.4
766000.0,5843000.0,2978.58
767000.0,5843000.0,2985.1299999999997
768000.0,5843000.0,2981.15
769000.0,5843000.0,3041.5999999999995
770000.0,5843000.0,3067.92
771000.0,5843000.0,3079.83
772000.0,5843000.0,3140.9000000000005
773000.0,5843000.0,3126.74
774000.0,5843000.0,3131.3999999999996
775000.0,5843000.0,3136.3
776000.0,5843000.0,3158.08
777000.0,5843000.0,3187.74
778000.0,5843000.0,3182.16
779000.0,5843000.0,3088.2
780000.0,5843000.0,3076.23
781000.0,5843000.0,2993.55
782000.0,5843000.0,2978.4000000000005
783000.0,5843000.0,2973.04
784000.0,5843000.0,2989.45
785000.0,5843000.0,2984.8399999999997
786000.0,5843000.0,2994.01
787000.0,5843000.0,3015.55
788000.0,5843000.0,3247.52
789000.0,5843000.0,3171.0
792000.0,5843000.0,3153.0
793000.0,5843000.0,3144.6
794000.0,5843000.0,3132.6600000000003
795000.0,5843000.0,3202.6499999999996
796000.0,5843000.0,3120.1
797000.0,5843000.0,3103.9800000000005
798000.0,5843000.0,3158.6900000000005
799000.0,5843000.0,3163.13
800000.0,5843000.0,3201.5
801000.0,5843000.0,3215.5
802000.0,5843000.0,3172.1
805000.0,5843000.0,3233.92
806000.0,5843000.0,3261.65
807000.0,5843000.0,3368.5
808000.0,5843000.0,3339.2000000000003
809000.0,5843000.0,3370.09
810000.0,5843000.0,3387.67
811000.0,5843000.0,3433.95
812000.0,5843000.0,3453.5699999999997
813000.0,5843000.0,3516.95
814000.0,5843000.0,3507.21
815000.0,5843000.0,3503.8
816000.0,5843000.0,3511.38
817000.0,5843000.0,3577.22
818000.0,5843000.0,3416.5
819000.0,5843000.0,3401.04
820000.0,5843000.0,3485.56
821000.0,5843000.0,3415.39
822000.0,5843000.0,3447.86
823000.0,5843000.0,3478.94
824000.0,5843000.0,3602.46
825000.0,5843000.0,3607.16
826000.0,5843000.0,3785.8799999999997
827000.0,5843000.0,3535.07
828000.0,5843000.0,3879.66
829000.0,5843000.0,3850.9500000000003
830000.0,5843000.0,3827.86
831000.0,5843000.0,3518.2299999999996
832000.0,5843000.0,3574.81
833000.0,5843000.0,3778.66
834000.0,5843000.0,3604.6500000000005
835000.0,5843000.0,3457.84
836000.0,5843000.0,3552.1299999999997
837000.0,5843000.0,3609.8900000000003
838000.0,5843000.0,3511.64
839000.0,5843000.0,3450.1600000000003
840000.0,5843000.0,3577.6800000000003
841000.0,5843000.0,3484.78
842000.0,5843000.0,3468.75
843000.0,5843000.0,3443.9100000000003
844000.0,5843000.0,3309.96
845000.0,5843000.0,3297.3900000000003
846000.0,5843000.0,3311.3999999999996
847000.0,5843000.0,3125.26
848000.0,5843000.0,3090.6600000000003
849000.0,5843000.0,2920.08
850000.0,5843000.0,2785.1
851000.0,5843000.0,2776.7200000000003
852000.0,5843000.0,2752.54
853000.0,5843000.0,2710.87
854000.0,5843000.0,2742.1499999999996
855000.0,5843000.0,2739.04
856000.0,5843000.0,2722.04
857000.0,5843000.0,2713.2200000000003
858000.0,5843000.0,2717.12
859000.0,5843000.0,2715.22
860000.0,5843000.0,2714.98
861000.0,5843000.0,2720.02
862000.0,5843000.0,2716.84
863000.0,5843000.0,2732.86
864000.0,5843000.0,2725.34
865000.0,5843000.0,2727.5299999999997
866000.0,5843000.0,2728.41
867000.0,5843000.0,2739.98
868000.0,5843000.0,2742.45
869000.0,5843000.0,2745.3199999999997
870000.0,5843000.0,2742.59
871000.0,5843000.0,2740.46
872000.0,5843000.0,2741.9
873000.0,5843000.0,2740.7
874000.0,5843000.0,2746.79
875000.0,5843000.0,2754.01
876000.0,5843000.0,2752.5299999999997
877000.0,5843000.0,2762.38
878000.0,5843000.0,2761.82
879000.0,5843000.0,2762.71
719000.0,5842000.0,2907.3
720000.0,5842000.0,2898.1
721000.0,5842000.0,2902.23
722000.0,5842000.0,2903.2999999999997
723000.0,5842000.0,2897.25
724000.0,5842000.0,2897.71
725000.0,5842000.0,2907.5
726000.0,5842000.0,2919.61
727000.0,5842000.0,2914.8599999999997
728000.0,5842000.0,2908.58
729000.0,5842000.0,2918.8
730000.0,5842000.0,2925.0099999999998
731000.0,5842000.0,2907.81
732000.0,5842000.0,3079.8
733000.0,5842000.0,2968.3999999999996
734000.0,5842000.0,3257.81
735000.0,5842000.0,3096.2
736000.0,5842000.0,2918.2200000000003
737000.0,5842000.0,2923.2999999999997
738000.0,5842000.0,2914.78
739000.0,5842000.0,3183.6000000000004
740000.0,5842000.0,2939.4
741000.0,5842000.0,3047.74
742000.0,5842000.0,2979.5
743000.0,5842000.0,2960.0099999999998
744000.0,5842000.0,3038.12
745000.0,5842000.0,3071.5
746000.0,5842000.0,2980.0299999999997
747000.0,5842000.0,2942.3
748000.0,5842000.0,2940.2300000000005
749000.0,5842000.0,2937.1
750000.0,5842000.0,2958.96
751000.0,5842000.0,2953.27
752000.0,5842000.0,2956.1000000000004
753000.0,5842000.0,2958.2299999999996
754000.0,5842000.0,2958.08
755000.0,5842000.0,2945.4
756000.0,5842000.0,2950.1600000000003
757000.0,5842000.0,2945.86
758000.0,5842000.0,2954.33
759000.0,5842000.0,2939.2000000000003
760000.0,5842000.0,2942.1
761000.0,5842000.0,2941.92
762000.0,5842000.0,2947.9
763000.0,5842000.0,2953.5199999999995
764000.0,5842000.0,2966.1000000000004
765000.0,5842000.0,2958.2
766000.0,5842000.0,2987.9700000000003
767000.0,5842000.0,2996.33
768000.0,5842000.0,2974.81
769000.0,5842000.0,2992.6
770000.0,5842000.0,3028.56
771000.0,5842000.0,3096.5
772000.0,5842000.0,3104.5
773000.0,5842000.0,3086.25
774000.0,5842000.0,3139.2599999999998
775000.0,5842000.0,3162.2000000000003
776000.0,5842000.0,3167.2000000000003
777000.0,5842000.0,3207.31
778000.0,5842000.0,3113.07
779000.0,5842000.0,3092.7
780000.0,5842000.0,2985.0
781000.0,5842000.0,2984.61
782000.0,5842000.0,2977.1
783000.0,5842000.0,2982.01
784000.0,5842000.0,2996.35
785000.0,5842000.0,2987.74
786000.0,5842000.0,2992.2000000000003
787000.0,5842000.0,3037.3399999999997
788000.0,5842000.0,3166.94
789000.0,5842000.0,3198.2
792000.0,5842000.0,3027.16
793000.0,5842000.0,3104.14
794000.0,5842000.0,3111.59
795000.0,5842000.0,3072.29
796000.0,5842000.0,3103.4000000000005
797000.0,5842000.0,3104.2000000000003
798000.0,5842000.0,3223.6000000000004
799000.0,5842000.0,3157.4
800000.0,5842000.0,3170.5
806000.0,5842000.0,3397.1
807000.0,5842000.0,3437.3399999999997
808000.0,5842000.0,3489.91
809000.0,5842000.0,3344.3600000000006
810000.0,5842000.0,3384.96
811000.0,5842000.0,3423.7599999999998
812000.0,5842000.0,3453.6000000000004
813000.0,5842000.0,3490.92
814000.0,5842000.0,3495.94
815000.0,5842000.0,3507.3199999999997
816000.0,5842000.0,3486.46
817000.0,5842000.0,3459.6299999999997
818000.0,5842000.0,3442.8499999999995
819000.0,5842000.0,3451.01
820000.0,5842000.0,3395.0
821000.0,5842000.0,3435.7799999999997
822000.0,5842000.0,3457.69
823000.0,5842000.0,3462.3599999999997
824000.0,5842000.0,3558.2400000000002
825000.0,5842000.0,3594.4100000000003
826000.0,5842000.0,3689.8599999999997
827000.0,5842000.0,3314.46
828000.0,5842000.0,3683.29
829000.0,5842000.0,3753.77
830000.0,5842000.0,3695.86
831000.0,5842000.0,3456.37
832000.0,5842000.0,3551.3099999999995
833000.0,5842000.0,3650.6399999999994
834000.0,5842000.0,3577.12
835000.0,5842000.0,3550.07
836000.0,5842000.0,3649.6800000000003
837000.0,5842000.0,3818.77
838000.0,5842000.0,3862.72
839000.0,5842000.0,3570.8799999999997
840000.0,5842000.0,3402.55
841000.0,5842000.0,3419.11
842000.0,5842000.0,3437.6499999999996
843000.0,5842000.0,3462.25
844000.0,5842000.0,3324.8500000000004
845000.0,5842000.0,3288.0
846000.0,5842000.0,3252.6
847000.0,5842000.0,3275.27
848000.0,5842000.0,3178.8
849000.0,5842000.0,3102.48
850000.0,5842000.0,2826.94
851000.0,5842000.0,2806.91
852000.0,5842000.0,2727.39
853000.0,5842000.0,2715.31
854000.0,5842000.0,2746.5499999999997
855000.0,5842000.0,2745.1299999999997
856000.0,5842000.0,2731.56
857000.0,5842000.0,2717.21
858000.0,5842000.0,2720.9500000000003
859000.0,5842000.0,2715.54
860000.0,5842000.0,2715.8999999999996
861000.0,5842000.0,2718.58
862000.0,5842000.0,2721.88
863000.0,5842000.0,2722.13
864000.0,5842000.0,2718.47
865000.0,5842000.0,2716.79
866000.0,5842000.0,2723.41
867000.0,5842000.0,2729.2599999999998
868000.0,5842000.0,2720.1400000000003
869000.0,5842000.0,2734.61
870000.0,5842000.0,2741.63
871000.0,5842000.0,2729.9400000000005
872000.0,5842000.0,2745.5299999999997
873000.0,5842000.0,2747.86
874000.0,5842000.0,2748.6000000000004
875000.0,5842000.0,2752.98
876000.0,5842000.0,2763.0099999999998
877000.0,5842000.0,2758.2999999999997
878000.0,5842000.0,2764.08
879000.0,5842000.0,2772.71
719000.0,5841000.0,2900.6
720000.0,5841000.0,2957.9
721000.0,5841000.0,2898.3199999999997
722000.0,5841000.0,2901.3999999999996
723000.0,5841000.0,2919.6800000000003
724000.0,5841000.0,2918.5199999999995
725000.0,5841000.0,2927.1
726000.0,5841000.0,2933.9800000000005
727000.0,5841000.0,2908.42
728000.0,5841000.0,2902.67
729000.0,5841000.0,2901.3999999999996
730000.0,5841000.0,2926.6000000000004
731000.0,5841000.0,2929.5499999999997
732000.0,5841000.0,2983.6000000000004
733000.0,5841000.0,3093.58
734000.0,5841000.0,3010.22
735000.0,5841000.0,2945.4
736000.0,5841000.0,3070.4500000000003
737000.0,5841000.0,2924.76
738000.0,5841000.0,2958.0299999999997
739000.0,5841000.0,2935.6
740000.0,5841000.0,2937.5
741000.0,5841000.0,2931.44
742000.0,5841000.0,2937.5
743000.0,5841000.0,2951.92
744000.0,5841000.0,3054.0499999999997
745000.0,5841000.0,3071.3
746000.0,5841000.0,2962.21
747000.0,5841000.0,2935.5
748000.0,5841000.0,2976.53
749000.0,5841000.0,2952.7
750000.0,5841000.0,2959.9700000000003
751000.0,5841000.0,2957.9500000000003
752000.0,5841000.0,2954.5
753000.0,5841000.0,2961.0
754000.0,5841000.0,2961.25
755000.0,5841000.0,2956.5
756000.0,5841000.0,2949.33
757000.0,5841000.0,2950.55
758000.0,5841000.0,2943.26
759000.0,5841000.0,2939.7000000000003
760000.0,5841000.0,2939.7000000000003
761000.0,5841000.0,2942.29
762000.0,5841000.0,2953.1
763000.0,5841000.0,2948.66
764000.0,5841000.0,2954.43
765000.0,5841000.0,2955.6
766000.0,5841000.0,2957.11
767000.0,5841000.0,2969.5600000000004
768000.0,5841000.0,2968.2999999999997
769000.0,5841000.0,2977.7
770000.0,5841000.0,2988.63
771000.0,5841000.0,3005.28
772000.0,5841000.0,3142.9
773000.0,5841000.0,3120.84
774000.0,5841000.0,3115.54
775000.0,5841000.0,3140.1
776000.0,5841000.0,3136.04
777000.0,5841000.0,3187.77
778000.0,5841000.0,3000.79
779000.0,5841000.0,2981.3
780000.0,5841000.0,2981.67
781000.0,5841000.0,2977.43
782000.0,5841000.0,2975.9000000000005
783000.0,5841000.0,3020.7799999999997
784000.0,5841000.0,2989.04
785000.0,5841000.0,2986.75
786000.0,5841000.0,2994.9700000000003
787000.0,5841000.0,3020.55
788000.0,5841000.0,3141.3
789000.0,5841000.0,3180.2999999999997
792000.0,5841000.0,3144.1800000000003
793000.0,5841000.0,3001.85
794000.0,5841000.0,3023.46
795000.0,5841000.0,3025.5299999999997
796000.0,5841000.0,3058.4000000000005
806000.0,5841000.0,3331.7000000000003
807000.0,5841000.0,3378.2299999999996
808000.0,5841000.0,3303.34
809000.0,5841000.0,3325.91
810000.0,5841000.0,3344.45
811000.0,5841000.0,3419.79
812000.0,5841000.0,3468.54
813000.0,5841000.0,3490.2999999999997
814000.0,5841000.0,3515.42
815000.0,5841000.0,3479.91
816000.0,5841000.0,3376.8399999999997
817000.0,5841000.0,3397.6499999999996
818000.0,5841000.0,3415.5299999999997
819000.0,5841000.0,3481.34
820000.0,5841000.0,3381.6800000000003
821000.0,5841000.0,3420.39
822000.0,5841000.0,3456.4300000000003
823000.0,5841000.0,3466.74
824000.0,5841000.0,3543.8900000000003
825000.0,5841000.0,3539.31
826000.0,5841000.0,3619.08
827000.0,5841000.0,3307.17
828000.0,5841000.0,3522.38
829000.0,5841000.0,3680.3700000000003
830000.0,5841000.0,3656.0899999999997
831000.0,5841000.0,3389.2700000000004
832000.0,5841000.0,3694.51
833000.0,5841000.0,3595.08
834000.0,5841000.0,3526.7000000000003
835000.0,5841000.0,3655.0099999999998
836000.0,5841000.0,3713.0299999999997
837000.0,5841000.0,3813.2999999999997
838000.0,5841000.0,3789.09
839000.0,5841000.0,3585.13
840000.0,5841000.0,3535.5299999999997
841000.0,5841000.0,3463.6400000000003
842000.0,5841000.0,3458.96
843000.0,5841000.0,3511.3099999999995
844000.0,5841000.0,3327.4
845000.0,5841000.0,3384.58
846000.0,5841000.0,3389.3600000000006
847000.0,5841000.0,3247.6
848000.0,5841000.0,3246.63
849000.0,5841000.0,3083.79
850000.0,5841000.0,2750.99
851000.0,5841000.0,2798.46
852000.0,5841000.0,2788.94
853000.0,5841000.0,2766.4300000000003
854000.0,5841000.0,2754.93
855000.0,5841000.0,2757.42
856000.0,5841000.0,2748.5899999999997
857000.0,5841000.0,2735.99
858000.0,5841000.0,2727.8500000000004
859000.0,5841000.0,2728.9800000000005
860000.0,5841000.0,2716.29
861000.0,5841000.0,2716.85
862000.0,5841000.0,2712.9700000000003
863000.0,5841000.0,2718.73
864000.0,5841000.0,2721.91
865000.0,5841000.0,2713.63
866000.0,5841000.0,2720.4300000000003
867000.0,5841000.0,2720.98
868000.0,5841000.0,2730.8300000000004
869000.0,5841000.0,2732.0800000000004
870000.0,5841000.0,2738.87
871000.0,5841000.0,2739.89
872000.0,5841000.0,2739.7699999999995
873000.0,5841000.0,2746.45
874000.0,5841000.0,2755.99
875000.0,5841000.0,2758.19
876000.0,5841000.0,2741.63
877000.0,5841000.0,2757.1800000000003
878000.0,5841000.0,2761.96
879000.0,5841000.0,2775.7299999999996
880000.0,5841000.0,2780.0299999999997
720000.0,5840000.0,2894.2000000000003
721000.0,5840000.0,2906.5
722000.0,5840000.0,2905.2999999999997
723000.0,5840000.0,2907.3
724000.0,5840000.0,2910.2
725000.0,5840000.0,2908.1
726000.0,5840000.0,2902.4
727000.0,5840000.0,2903.0
728000.0,5840000.0,2907.1
729000.0,5840000.0,2922.0
730000.0,5840000.0,2903.8999999999996
731000.0,5840000.0,3013.4000000000005
732000.0,5840000.0,3058.8999999999996
733000.0,5840000.0,3049.3
734000.0,5840000.0,2929.5
735000.0,5840000.0,3060.0
736000.0,5840000.0,3053.6000000000004
737000.0,5840000.0,2945.2
738000.0,5840000.0,2920.7
739000.0,5840000.0,2938.2999999999997
740000.0,5840000.0,3098.5
741000.0,5840000.0,2934.0
742000.0,5840000.0,2941.6000000000004
743000.0,5840000.0,3013.2
744000.0,5840000.0,2949.6
745000.0,5840000.0,2952.9
746000.0,5840000.0,2935.7
747000.0,5840000.0,2944.1000000000004
748000.0,5840000.0,3028.8999999999996
749000.0,5840000.0,2957.7999999999997
750000.0,5840000.0,2947.1
751000.0,5840000.0,2952.2000000000003
752000.0,5840000.0,2953.5
753000.0,5840000.0,2953.8999999999996
754000.0,5840000.0,2960.2999999999997
755000.0,5840000.0,2942.0
756000.0,5840000.0,2941.3
757000.0,5840000.0,2960.1
758000.0,5840000.0,2948.8999999999996
759000.0,5840000.0,2946.7000000000003
760000.0,5840000.0,2941.5
761000.0,5840000.0,2940.0
762000.0,5840000.0,2954.9
763000.0,5840000.0,2951.5
764000.0,5840000.0,2951.8
765000.0,5840000.0,2955.0
766000.0,5840000.0,2958.8999999999996
767000.0,5840000.0,2956.8
768000.0,5840000.0,2969.1000000000004
769000.0,5840000.0,2968.8
770000.0,5840000.0,2969.7000000000003
771000.0,5840000.0,2971.0
772000.0,5840000.0,2974.5
773000.0,5840000.0,3008.4000000000005
774000.0,5840000.0,3055.9000000000005
775000.0,5840000.0,3031.3999999999996
776000.0,5840000.0,3007.0
777000.0,5840000.0,2986.5
778000.0,5840000.0,2976.2
779000.0,5840000.0,3051.3
780000.0,5840000.0,2975.9000000000005
781000.0,5840000.0,2980.5
782000.0,5840000.0,2981.5
783000.0,5840000.0,2974.6
784000.0,5840000.0,2985.4
785000.0,5840000.0,2975.9000000000005
786000.0,5840000.0,3002.7
787000.0,5840000.0,3017.4
788000.0,5840000.0,3046.2
792000.0,5840000.0,3059.7000000000003
793000.0,5840000.0,3038.6000000000004
794000.0,5840000.0,3105.5
795000.0,5840000.0,3054.3
796000.0,5840000.0,3002.5
805000.0,5840000.0,3281.3
806000.0,5840000.0,3263.8999999999996
807000.0,5840000.0,3329.7000000000003
808000.0,5840000.0,3328.6000000000004
809000.0,5840000.0,3361.3999999999996
810000.0,5840000.0,3337.5
811000.0,5840000.0,3445.5
812000.0,5840000.0,3413.8
813000.0,5840000.0,3495.4
814000.0,5840000.0,3459.0
815000.0,5840000.0,3406.5
816000.0,5840000.0,3504.6
817000.0,5840000.0,3394.0999999999995
818000.0,5840000.0,3419.9
819000.0,5840000.0,3426.7000000000003
820000.0,5840000.0,3371.9
821000.0,5840000.0,3432.7999999999997
822000.0,5840000.0,3433.8999999999996
823000.0,5840000.0,3457.7999999999997
824000.0,5840000.0,3432.5
825000.0,5840000.0,3528.5
826000.0,5840000.0,3572.3
827000.0,5840000.0,3284.2000000000003
828000.0,5840000.0,3485.7
829000.0,5840000.0,3553.6000000000004
830000.0,5840000.0,3544.7000000000003
831000.0,5840000.0,3362.3
832000.0,5840000.0,3505.2999999999997
833000.0,5840000.0,3531.2
834000.0,5840000.0,3544.4
835000.0,5840000.0,3553.7
836000.0,5840000.0,3778.0
837000.0,5840000.0,3801.2
838000.0,5840000.0,3729.6
839000.0,5840000.0,3566.2
840000.0,5840000.0,3449.5
841000.0,5840000.0,3409.0
842000.0,5840000.0,3560.2
843000.0,5840000.0,3620.2
844000.0,5840000.0,3546.2
845000.0,5840000.0,3464.0
846000.0,5840000.0,3434.5
847000.0,5840000.0,3422.1
848000.0,5840000.0,3203.6000000000004
849000.0,5840000.0,2963.7
850000.0,5840000.0,2885.1
851000.0,5840000.0,2884.1000000000004
852000.0,5840000.0,3199.0999999999995
853000.0,5840000.0,2956.9
854000.0,5840000.0,2787.7
855000.0,5840000.0,2767.3
856000.0,5840000.0,2768.5
857000.0,5840000.0,2757.4
858000.0,5840000.0,2754.5
859000.0,5840000.0,2751.9
860000.0,5840000.0,2736.0
861000.0,5840000.0,2737.0
862000.0,5840000.0,2712.7
863000.0,5840000.0,2718.8
864000.0,5840000.0,2724.6
865000.0,5840000.0,2710.0
866000.0,5840000.0,2722.0
867000.0,5840000.0,2727.9
868000.0,5840000.0,2720.2
869000.0,5840000.0,2726.3999999999996
870000.0,5840000.0,2743.2
871000.0,5840000.0,2739.7000000000003
872000.0,5840000.0,2749.6
873000.0,5840000.0,2753.8
874000.0,5840000.0,2752.0
875000.0,5840000.0,2762.4
876000.0,5840000.0,2769.8
877000.0,5840000.0,2758.3999999999996
878000.0,5840000.0,2758.7
879000.0,5840000.0,2763.2999999999997
880000.0,5840000.0,2775.2
881000.0,5840000.0,2807.7999999999997
719000.0,5839000.0,2900.7
720000.0,5839000.0,3008.6000000000004
721000.0,5839000.0,3090.0
722000.0,5839000.0,3066.1000000000004
723000.0,5839000.0,3115.92
724000.0,5839000.0,3122.14
725000.0,5839000.0,2908.0
726000.0,5839000.0,2921.52
727000.0,5839000.0,2915.5200000000004
728000.0,5839000.0,2921.94
729000.0,5839000.0,2921.2
730000.0,5839000.0,2923.9800000000005
731000.0,5839000.0,2904.61
732000.0,5839000.0,2905.0
733000.0,5839000.0,3033.56
734000.0,5839000.0,3015.38
735000.0,5839000.0,2997.9
736000.0,5839000.0,3102.46
737000.0,5839000.0,2957.4900000000002
738000.0,5839000.0,2932.09
739000.0,5839000.0,2922.12
740000.0,5839000.0,3130.5
741000.0,5839000.0,3012.6
742000.0,5839000.0,2936.1000000000004
743000.0,5839000.0,2926.3999999999996
744000.0,5839000.0,2939.74
745000.0,5839000.0,2926.7000000000003
746000.0,5839000.0,2926.8900000000003
747000.0,5839000.0,3040.48
748000.0,5839000.0,2973.9100000000003
749000.0,5839000.0,2950.5
750000.0,5839000.0,2961.92
751000.0,5839000.0,2951.66
752000.0,5839000.0,2954.3
753000.0,5839000.0,2954.1899999999996
754000.0,5839000.0,2957.0499999999997
755000.0,5839000.0,2953.1
756000.0,5839000.0,2948.47
757000.0,5839000.0,2954.12
758000.0,5839000.0,2948.2
759000.0,5839000.0,2951.4800000000005
760000.0,5839000.0,2949.0
761000.0,5839000.0,2953.0
762000.0,5839000.0,2957.1
763000.0,5839000.0,2943.7
764000.0,5839000.0,2960.83
765000.0,5839000.0,2956.9
766000.0,5839000.0,2960.0599999999995
767000.0,5839000.0,2960.94
768000.0,5839000.0,2967.57
769000.0,5839000.0,2970.4
770000.0,5839000.0,2967.69
771000.0,5839000.0,2989.4
772000.0,5839000.0,2970.0
773000.0,5839000.0,2981.58
774000.0,5839000.0,2978.4500000000003
775000.0,5839000.0,2976.7000000000003
776000.0,5839000.0,3007.38
777000.0,5839000.0,2984.0999999999995
778000.0,5839000.0,2976.9
779000.0,5839000.0,2982.01
780000.0,5839000.0,2972.99
781000.0,5839000.0,2980.4
782000.0,5839000.0,2969.6
783000.0,5839000.0,2973.46
784000.0,5839000.0,2977.62
785000.0,5839000.0,2986.3999999999996
805000.0,5839000.0,3260.2
806000.0,5839000.0,3259.0
807000.0,5839000.0,3307.9
808000.0,5839000.0,3256.1000000000004
809000.0,5839000.0,3333.0
810000.0,5839000.0,3344.3
811000.0,5839000.0,3409.8
812000.0,5839000.0,3433.6000000000004
813000.0,5839000.0,3422.5
814000.0,5839000.0,3437.7
815000.0,5839000.0,3369.0
816000.0,5839000.0,3453.8999999999996
817000.0,5839000.0,3374.3
818000.0,5839000.0,3409.4
819000.0,5839000.0,3364.6
820000.0,5839000.0,3428.3100000000004
821000.0,5839000.0,3424.42
822000.0,5839000.0,3360.1099999999997
823000.0,5839000.0,3386.44
824000.0,5839000.0,3447.6
825000.0,5839000.0,3483.5
826000.0,5839000.0,3473.0099999999998
827000.0,5839000.0,3399.01
828000.0,5839000.0,3433.36
829000.0,5839000.0,3414.67
830000.0,5839000.0,3482.9300000000003
831000.0,5839000.0,3494.7699999999995
832000.0,5839000.0,3448.36
833000.0,5839000.0,3457.3199999999997
834000.0,5839000.0,3434.13
835000.0,5839000.0,3607.38
836000.0,5839000.0,3713.8099999999995
837000.0,5839000.0,3715.3700000000003
838000.0,5839000.0,3738.13
839000.0,5839000.0,3528.82
840000.0,5839000.0,3483.06
841000.0,5839000.0,3416.8600000000006
842000.0,5839000.0,3447.1299999999997
843000.0,5839000.0,3467.6600000000003
844000.0,5839000.0,3576.38
845000.0,5839000.0,3568.51
846000.0,5839000.0,3301.2799999999997
847000.0,5839000.0,3254.93
848000.0,5839000.0,3181.7799999999997
849000.0,5839000.0,2937.3700000000003
850000.0,5839000.0,2968.87
851000.0,5839000.0,3010.6600000000003
852000.0,5839000.0,3190.9000000000005
853000.0,5839000.0,3142.08
854000.0,5839000.0,2953.9300000000003
855000.0,5839000.0,2797.89
856000.0,5839000.0,2772.0699999999997
857000.0,5839000.0,2771.54
858000.0,5839000.0,2780.05
859000.0,5839000.0,2776.85
860000.0,5839000.0,2770.76
861000.0,5839000.0,2732.67
862000.0,5839000.0,2731.79
863000.0,5839000.0,2717.6400000000003
864000.0,5839000.0,2720.37
865000.0,5839000.0,2714.29
866000.0,5839000.0,2721.51
867000.0,5839000.0,2730.8300000000004
868000.0,5839000.0,2731.35
869000.0,5839000.0,2731.5
870000.0,5839000.0,2731.71
871000.0,5839000.0,2735.26
872000.0,5839000.0,2763.3999999999996
873000.0,5839000.0,2750.58
874000.0,5839000.0,2755.4
875000.0,5839000.0,2760.92
876000.0,5839000.0,2741.9
877000.0,5839000.0,2753.92
878000.0,5839000.0,2758.66
879000.0,5839000.0,2764.83
880000.0,5839000.0,2783.0299999999997
881000.0,5839000.0,2784.1800000000003
719000.0,5838000.0,2984.5
720000.0,5838000.0,3214.0
721000.0,5838000.0,3115.65
722000.0,5838000.0,3108.2
723000.0,5838000.0,3094.09
724000.0,5838000.0,3080.7400000000002
725000.0,5838000.0,2919.2000000000003
726000.0,5838000.0,2921.1099999999997
727000.0,5838000.0,2938.0099999999998
728000.0,5838000.0,2923.4500000000003
729000.0,5838000.0,2928.6000000000004
730000.0,5838000.0,2925.3199999999997
731000.0,5838000.0,2924.2799999999997
732000.0,5838000.0,3032.6
733000.0,5838000.0,3014.88
734000.0,5838000.0,2998.4300000000003
735000.0,5838000.0,2992.6
736000.0,5838000.0,3085.17
737000.0,5838000.0,3077.8199999999997
738000.0,5838000.0,2942.4900000000002
739000.0,5838000.0,2932.3199999999997
740000.0,5838000.0,2920.8999999999996
741000.0,5838000.0,2923.17
742000.0,5838000.0,2931.7000000000003
743000.0,5838000.0,2928.8799999999997
744000.0,5838000.0,2927.2000000000003
745000.0,5838000.0,2932.9
746000.0,5838000.0,2923.06
747000.0,5838000.0,3038.65
748000.0,5838000.0,2973.08
749000.0,5838000.0,2942.1
750000.0,5838000.0,2974.42
751000.0,5838000.0,3027.39
752000.0,5838000.0,3084.9
753000.0,5838000.0,2953.6200000000003
754000.0,5838000.0,2954.74
755000.0,5838000.0,2951.8
756000.0,5838000.0,2955.19
757000.0,5838000.0,2953.36
758000.0,5838000.0,2950.8999999999996
759000.0,5838000.0,2950.59
760000.0,5838000.0,2947.7999999999997
761000.0,5838000.0,2951.52
762000.0,5838000.0,2948.3999999999996
763000.0,5838000.0,2949.3599999999997
764000.0,5838000.0,2956.65
765000.0,5838000.0,2949.5
766000.0,5838000.0,2967.45
767000.0,5838000.0,2958.92
768000.0,5838000.0,2959.76
769000.0,5838000.0,2965.4
770000.0,5838000.0,2966.17
771000.0,5838000.0,2980.94
772000.0,5838000.0,3022.6
773000.0,5838000.0,2970.26
774000.0,5838000.0,2963.05
775000.0,5838000.0,2965.4
776000.0,5838000.0,2987.1500000000005
777000.0,5838000.0,2996.74
778000.0,5838000.0,2990.1
779000.0,5838000.0,2981.25
780000.0,5838000.0,2980.04
781000.0,5838000.0,2970.6400000000003
782000.0,5838000.0,2968.1
783000.0,5838000.0,2970.94
784000.0,5838000.0,2979.0999999999995
785000.0,5838000.0,2964.8
805000.0,5838000.0,3241.3
806000.0,5838000.0,3225.2
807000.0,5838000.0,3264.0
808000.0,5838000.0,3308.6000000000004
809000.0,5838000.0,3357.9
810000.0,5838000.0,3333.2999999999997
811000.0,5838000.0,3370.7
812000.0,5838000.0,3366.1000000000004
813000.0,5838000.0,3319.6
814000.0,5838000.0,3372.6
815000.0,5838000.0,3434.2000000000003
816000.0,5838000.0,3393.8
817000.0,5838000.0,3313.6000000000004
818000.0,5838000.0,3344.8
819000.0,5838000.0,3301.2
820000.0,5838000.0,3370.07
821000.0,5838000.0,3375.49
822000.0,5838000.0,3390.8100000000004
823000.0,5838000.0,3371.81
824000.0,5838000.0,3434.7699999999995
825000.0,5838000.0,3381.21
826000.0,5838000.0,3362.9300000000003
827000.0,5838000.0,3385.2300000000005
828000.0,5838000.0,3409.8900000000003
829000.0,5838000.0,3427.58
830000.0,5838000.0,3455.4399999999996
831000.0,5838000.0,3305.57
832000.0,5838000.0,3452.24
833000.0,5838000.0,3473.35
834000.0,5838000.0,3466.8899999999994
835000.0,5838000.0,3589.76
836000.0,5838000.0,3690.86
837000.0,5838000.0,3582.26
838000.0,5838000.0,3572.0499999999997
839000.0,5838000.0,3440.0599999999995
840000.0,5838000.0,3510.5
841000.0,5838000.0,3388.58
842000.0,5838000.0,3499.92
843000.0,5838000.0,3308.68
844000.0,5838000.0,3679.54
845000.0,5838000.0,3346.3099999999995
846000.0,5838000.0,2956.35
847000.0,5838000.0,3236.0
848000.0,5838000.0,2813.2200000000003
849000.0,5838000.0,2804.1800000000003
850000.0,5838000.0,2966.51
851000.0,5838000.0,3115.9500000000003
852000.0,5838000.0,3184.0499999999997
853000.0,5838000.0,3173.19
854000.0,5838000.0,3212.75
855000.0,5838000.0,2932.6499999999996
856000.0,5838000.0,2828.2799999999997
857000.0,5838000.0,2791.96
858000.0,5838000.0,2814.7000000000003
859000.0,5838000.0,2822.24
860000.0,5838000.0,2774.91
861000.0,5838000.0,2764.14
862000.0,5838000.0,2760.97
863000.0,5838000.0,2746.46
864000.0,5838000.0,2719.54
865000.0,5838000.0,2716.2400000000002
866000.0,5838000.0,2720.56
867000.0,5838000.0,2729.1800000000003
868000.0,5838000.0,2724.9900000000002
869000.0,5838000.0,2725.7400000000002
870000.0,5838000.0,2733.8099999999995
871000.0,5838000.0,2745.3199999999997
872000.0,5838000.0,2748.29
873000.0,5838000.0,2749.93
874000.0,5838000.0,2756.9799999999996
875000.0,5838000.0,2759.06
876000.0,5838000.0,2766.63
877000.0,5838000.0,2768.7400000000002
878000.0,5838000.0,2755.0099999999998
879000.0,5838000.0,2772.0800000000004
880000.0,5838000.0,2782.16
719000.0,5837000.0,3125.5
720000.0,5837000.0,2983.8
721000.0,5837000.0,3070.9300000000003
722000.0,5837000.0,3072.6
723000.0,5837000.0,2939.12
724000.0,5837000.0,3187.74
725000.0,5837000.0,2906.2
726000.0,5837000.0,2927.9399999999996
727000.0,5837000.0,2932.61
728000.0,5837000.0,2940.2999999999997
729000.0,5837000.0,2923.2999999999997
730000.0,5837000.0,2931.0199999999995
731000.0,5837000.0,2932.38
732000.0,5837000.0,2964.2000000000003
733000.0,5837000.0,2960.8199999999997
734000.0,5837000.0,2971.5
735000.0,5837000.0,3044.8
736000.0,5837000.0,3247.57
737000.0,5837000.0,3274.89
738000.0,5837000.0,2983.19
739000.0,5837000.0,2939.6499999999996
740000.0,5837000.0,2918.1
741000.0,5837000.0,2922.77
742000.0,5837000.0,2935.5
743000.0,5837000.0,3046.36
744000.0,5837000.0,2963.05
745000.0,5837000.0,2932.9
746000.0,5837000.0,2926.27
747000.0,5837000.0,2957.3500000000004
748000.0,5837000.0,2942.9500000000003
749000.0,5837000.0,2983.1
750000.0,5837000.0,3031.95
751000.0,5837000.0,3082.4900000000002
752000.0,5837000.0,3076.5999999999995
753000.0,5837000.0,3071.9700000000003
754000.0,5837000.0,3019.59
755000.0,5837000.0,2979.9
756000.0,5837000.0,2958.05
757000.0,5837000.0,3115.71
758000.0,5837000.0,2990.2999999999997
759000.0,5837000.0,2958.87
760000.0,5837000.0,2953.2999999999997
761000.0,5837000.0,2945.3199999999997
762000.0,5837000.0,2949.9
763000.0,5837000.0,2945.1600000000003
764000.0,5837000.0,2946.81
765000.0,5837000.0,2940.6
766000.0,5837000.0,2942.38
767000.0,5837000.0,2959.3599999999997
768000.0,5837000.0,2962.67
769000.0,5837000.0,3037.3
770000.0,5837000.0,2959.5299999999997
771000.0,5837000.0,2972.33
772000.0,5837000.0,2974.8
773000.0,5837000.0,2969.3900000000003
774000.0,5837000.0,2956.4300000000003
775000.0,5837000.0,2961.0
776000.0,5837000.0,2964.2700000000004
777000.0,5837000.0,2976.7000000000003
778000.0,5837000.0,3010.7999999999997
779000.0,5837000.0,2987.04
780000.0,5837000.0,2970.2999999999997
781000.0,5837000.0,2970.1400000000003
782000.0,5837000.0,2968.0
783000.0,5837000.0,2977.29
784000.0,5837000.0,2978.0
806000.0,5837000.0,3274.7000000000003
807000.0,5837000.0,3266.0
808000.0,5837000.0,3270.2
809000.0,5837000.0,3369.3
810000.0,5837000.0,3280.7
811000.0,5837000.0,3348.8
812000.0,5837000.0,3345.2
813000.0,5837000.0,3291.5
814000.0,5837000.0,3348.2
815000.0,5837000.0,3343.4000000000005
816000.0,5837000.0,3387.9
817000.0,5837000.0,3333.1
818000.0,5837000.0,3348.1
819000.0,5837000.0,3287.6
820000.0,5837000.0,3369.46
821000.0,5837000.0,3315.13
822000.0,5837000.0,3303.1600000000003
823000.0,5837000.0,3338.79
824000.0,5837000.0,3338.25
825000.0,5837000.0,3343.34
826000.0,5837000.0,3326.47
827000.0,5837000.0,3310.7
828000.0,5837000.0,3398.13
829000.0,5837000.0,3410.62
830000.0,5837000.0,3333.21
831000.0,5837000.0,3309.8500000000004
832000.0,5837000.0,3420.41
833000.0,5837000.0,3445.29
834000.0,5837000.0,3440.05
835000.0,5837000.0,3509.8199999999997
836000.0,5837000.0,3541.4100000000003
837000.0,5837000.0,3570.5200000000004
838000.0,5837000.0,3441.4100000000003
839000.0,5837000.0,3499.37
840000.0,5837000.0,3547.9399999999996
841000.0,5837000.0,3396.88
842000.0,5837000.0,3425.75
843000.0,5837000.0,2916.37
844000.0,5837000.0,3004.73
845000.0,5837000.0,2967.8500000000004
846000.0,5837000.0,3085.1499999999996
847000.0,5837000.0,2838.99
848000.0,5837000.0,2834.32
849000.0,5837000.0,3010.05
850000.0,5837000.0,3174.46
851000.0,5837000.0,3058.36
852000.0,5837000.0,3124.8399999999997
853000.0,5837000.0,3176.46
854000.0,5837000.0,3148.39
855000.0,5837000.0,3062.96
856000.0,5837000.0,3015.62
857000.0,5837000.0,2845.5200000000004
858000.0,5837000.0,2837.22
859000.0,5837000.0,2850.5099999999998
860000.0,5837000.0,2836.3
861000.0,5837000.0,2791.66
862000.0,5837000.0,2793.7799999999997
863000.0,5837000.0,2831.5
864000.0,5837000.0,2962.7300000000005
865000.0,5837000.0,2767.11
866000.0,5837000.0,2728.75
867000.0,5837000.0,2727.75
868000.0,5837000.0,2723.4500000000003
869000.0,5837000.0,2729.2799999999997
870000.0,5837000.0,2735.7999999999997
871000.0,5837000.0,2740.5
872000.0,5837000.0,2745.58
873000.0,5837000.0,2751.7700000000004
874000.0,5837000.0,2754.66
875000.0,5837000.0,2762.42
876000.0,5837000.0,2764.31
877000.0,5837000.0,2770.36
878000.0,5837000.0,2762.77
879000.0,5837000.0,2777.3399999999997
880000.0,5837000.0,2782.31
720000.0,5836000.0,3133.0
721000.0,5836000.0,2979.79
722000.0,5836000.0,2977.5
723000.0,5836000.0,3051.01
724000.0,5836000.0,2924.71
725000.0,5836000.0,2912.7999999999997
726000.0,5836000.0,2926.3099999999995
727000.0,5836000.0,2944.2599999999998
728000.0,5836000.0,2926.92
729000.0,5836000.0,2932.5
730000.0,5836000.0,2925.28
731000.0,5836000.0,2928.8099999999995
732000.0,5836000.0,2960.0
733000.0,5836000.0,2986.1900000000005
734000.0,5836000.0,2981.93
735000.0,5836000.0,3042.4
736000.0,5836000.0,3161.29
737000.0,5836000.0,3353.97
738000.0,5836000.0,3314.92
739000.0,5836000.0,2957.3
740000.0,5836000.0,2924.2000000000003
741000.0,5836000.0,2972.92
742000.0,5836000.0,2932.4
743000.0,5836000.0,2979.29
744000.0,5836000.0,3064.29
745000.0,5836000.0,2927.7999999999997
746000.0,5836000.0,2953.47
747000.0,5836000.0,2933.49
748000.0,5836000.0,2961.82
749000.0,5836000.0,3055.2
750000.0,5836000.0,3091.88
751000.0,5836000.0,3042.58
752000.0,5836000.0,3041.8
753000.0,5836000.0,3056.49
754000.0,5836000.0,3065.41
755000.0,5836000.0,3034.0
756000.0,5836000.0,2959.02
757000.0,5836000.0,3048.0899999999997
758000.0,5836000.0,3083.2
759000.0,5836000.0,2980.76
760000.0,5836000.0,2973.8
761000.0,5836000.0,2966.3
762000.0,5836000.0,2973.2999999999997
763000.0,5836000.0,2957.3500000000004
764000.0,5836000.0,2950.79
765000.0,5836000.0,2945.8999999999996
766000.0,5836000.0,2955.55
767000.0,5836000.0,2958.7799999999997
768000.0,5836000.0,2954.2000000000003
769000.0,5836000.0,2955.6
770000.0,5836000.0,2958.0200000000004
771000.0,5836000.0,2961.5499999999997
772000.0,5836000.0,2966.2
773000.0,5836000.0,2967.5099999999998
774000.0,5836000.0,2957.9300000000003
775000.0,5836000.0,2963.1
776000.0,5836000.0,2959.02
777000.0,5836000.0,3008.77
778000.0,5836000.0,3002.3
779000.0,5836000.0,3051.54
780000.0,5836000.0,2969.6499999999996
781000.0,5836000.0,2969.6
782000.0,5836000.0,2973.5
783000.0,5836000.0,2971.81
784000.0,5836000.0,2969.8
809000.0,5836000.0,3256.5
810000.0,5836000.0,3267.2000000000003
811000.0,5836000.0,3372.1
812000.0,5836000.0,3315.7
813000.0,5836000.0,3326.7000000000003
814000.0,5836000.0,3311.0
815000.0,5836000.0,3327.0
816000.0,5836000.0,3365.6
817000.0,5836000.0,3298.5
818000.0,5836000.0,3304.0999999999995
819000.0,5836000.0,3283.8999999999996
820000.0,5836000.0,3278.0099999999998
821000.0,5836000.0,3269.16
822000.0,5836000.0,3308.55
823000.0,5836000.0,3302.41
824000.0,5836000.0,3298.6900000000005
825000.0,5836000.0,3293.44
826000.0,5836000.0,3301.37
827000.0,5836000.0,3244.4799999999996
828000.0,5836000.0,3362.23
829000.0,5836000.0,3365.85
830000.0,5836000.0,3305.94
831000.0,5836000.0,3291.64
832000.0,5836000.0,3380.8199999999997
833000.0,5836000.0,3415.9000000000005
834000.0,5836000.0,3422.98
835000.0,5836000.0,3349.66
836000.0,5836000.0,3419.87
837000.0,5836000.0,3468.79
838000.0,5836000.0,3392.33
839000.0,5836000.0,3295.96
840000.0,5836000.0,3530.3700000000003
841000.0,5836000.0,3472.25
842000.0,5836000.0,3378.1399999999994
843000.0,5836000.0,2914.33
844000.0,5836000.0,2952.52
845000.0,5836000.0,2980.07
846000.0,5836000.0,3129.69
847000.0,5836000.0,2951.54
848000.0,5836000.0,3192.4900000000002
849000.0,5836000.0,3159.9700000000003
850000.0,5836000.0,3062.7300000000005
851000.0,5836000.0,3098.29
852000.0,5836000.0,3092.43
853000.0,5836000.0,3161.32
854000.0,5836000.0,3215.5
855000.0,5836000.0,3188.04
856000.0,5836000.0,3139.3900000000003
857000.0,5836000.0,3111.15
858000.0,5836000.0,2964.06
859000.0,5836000.0,2841.29
860000.0,5836000.0,2925.5099999999998
861000.0,5836000.0,2959.44
862000.0,5836000.0,3153.2999999999997
863000.0,5836000.0,3167.76
864000.0,5836000.0,3248.5899999999997
865000.0,5836000.0,3165.79
866000.0,5836000.0,2733.2799999999997
867000.0,5836000.0,2725.8999999999996
868000.0,5836000.0,2720.5
869000.0,5836000.0,2725.6
870000.0,5836000.0,2726.6699999999996
871000.0,5836000.0,2745.0
872000.0,5836000.0,2742.42
873000.0,5836000.0,2749.6800000000003
874000.0,5836000.0,2759.98
875000.0,5836000.0,2768.3199999999997
876000.0,5836000.0,2778.79
877000.0,5836000.0,2772.91
878000.0,5836000.0,2784.51
879000.0,5836000.0,2781.2799999999997
880000.0,5836000.0,2786.9900000000002
715000.0,5835000.0,3202.4
717000.0,5835000.0,3139.0999999999995
718000.0,5835000.0,3085.7
719000.0,5835000.0,3013.6000000000004
720000.0,5835000.0,3037.5
721000.0,5835000.0,2998.54
722000.0,5835000.0,2963.1
723000.0,5835000.0,2944.23
724000.0,5835000.0,2918.9300000000003
725000.0,5835000.0,2912.7999999999997
726000.0,5835000.0,2925.98
727000.0,5835000.0,2946.1000000000004
728000.0,5835000.0,2942.7999999999997
729000.0,5835000.0,2942.0
730000.0,5835000.0,2930.28
731000.0,5835000.0,2938.87
732000.0,5835000.0,2945.7
733000.0,5835000.0,3034.95
734000.0,5835000.0,3397.3399999999997
735000.0,5835000.0,3184.2000000000003
736000.0,5835000.0,2967.4
737000.0,5835000.0,3137.45
738000.0,5835000.0,3203.48
739000.0,5835000.0,3029.3
740000.0,5835000.0,2929.0
741000.0,5835000.0,2999.72
742000.0,5835000.0,3015.6
743000.0,5835000.0,2924.23
744000.0,5835000.0,2944.8700000000003
745000.0,5835000.0,2927.3
746000.0,5835000.0,2929.83
747000.0,5835000.0,2952.0699999999997
748000.0,5835000.0,3008.79
749000.0,5835000.0,3078.6000000000004
750000.0,5835000.0,3089.64
751000.0,5835000.0,3046.8900000000003
752000.0,5835000.0,3028.8999999999996
753000.0,5835000.0,3072.28
754000.0,5835000.0,3033.97
755000.0,5835000.0,3072.5
756000.0,5835000.0,3078.25
757000.0,5835000.0,3065.5200000000004
758000.0,5835000.0,3039.5
759000.0,5835000.0,3006.1099999999997
760000.0,5835000.0,2957.4
761000.0,5835000.0,3041.83
762000.0,5835000.0,3037.1
763000.0,5835000.0,3033.8900000000003
764000.0,5835000.0,3014.8199999999997
765000.0,5835000.0,2952.7999999999997
766000.0,5835000.0,2947.81
