x,y,z
552000.0,5572000.0,6994.0
438000.0,5571000.0,6193.9
439000.0,5571000.0,6111.1
440000.0,5571000.0,5942.200000000001
441000.0,5571000.0,6006.6
442000.0,5571000.0,5828.299999999999
443000.0,5571000.0,5681.6
444000.0,5571000.0,5232.0
445000.0,5571000.0,5148.8
446000.0,5571000.0,5612.200000000001
447000.0,5571000.0,4918.400000000001
448000.0,5571000.0,4693.8
449000.0,5571000.0,5128.0
450000.0,5571000.0,5139.0
451000.0,5571000.0,5629.200000000001
452000.0,5571000.0,6125.2
453000.0,5571000.0,6507.4
454000.0,5571000.0,6611.900000000001
455000.0,5571000.0,6778.6
456000.0,5571000.0,8022.799999999999
457000.0,5571000.0,7440.799999999999
458000.0,5571000.0,7792.6
459000.0,5571000.0,8265.2
460000.0,5571000.0,8942.3
461000.0,5571000.0,7882.0
462000.0,5571000.0,6878.0
463000.0,5571000.0,7221.4
464000.0,5571000.0,6677.3
465000.0,5571000.0,6099.9
466000.0,5571000.0,6467.799999999999
467000.0,5571000.0,5930.599999999999
468000.0,5571000.0,5847.799999999999
469000.0,5571000.0,5718.5
470000.0,5571000.0,5664.200000000001
471000.0,5571000.0,6423.0
472000.0,5571000.0,7160.1
473000.0,5571000.0,6609.9
474000.0,5571000.0,5932.7
475000.0,5571000.0,5543.5
476000.0,5571000.0,4955.8
477000.0,5571000.0,4835.8
478000.0,5571000.0,4619.099999999999
479000.0,5571000.0,4373.8
480000.0,5571000.0,4259.4
481000.0,5571000.0,4276.0
482000.0,5571000.0,4141.3
483000.0,5571000.0,3978.7
484000.0,5571000.0,4086.3999999999996
485000.0,5571000.0,3903.2
486000.0,5571000.0,3827.7999999999997
487000.0,5571000.0,4016.2
488000.0,5571000.0,3899.8
489000.0,5571000.0,3866.3
490000.0,5571000.0,4215.0
491000.0,5571000.0,4365.0
492000.0,5571000.0,4377.9
493000.0,5571000.0,4591.5
494000.0,5571000.0,4526.2
495000.0,5571000.0,4106.3
496000.0,5571000.0,4164.8
497000.0,5571000.0,4022.0
498000.0,5571000.0,3950.5
499000.0,5571000.0,3860.2999999999997
500000.0,5571000.0,4097.1
501000.0,5571000.0,3901.3
502000.0,5571000.0,3896.5999999999995
503000.0,5571000.0,3887.2000000000003
504000.0,5571000.0,3922.4
505000.0,5571000.0,3907.4
506000.0,5571000.0,3954.2
507000.0,5571000.0,4333.0
508000.0,5571000.0,3991.8
509000.0,5571000.0,4114.5
510000.0,5571000.0,5085.1
511000.0,5571000.0,5266.5
512000.0,5571000.0,5677.6
513000.0,5571000.0,5937.0
514000.0,5571000.0,6152.0
515000.0,5571000.0,6069.1
516000.0,5571000.0,6355.2
517000.0,5571000.0,6225.1
518000.0,5571000.0,6342.9
519000.0,5571000.0,6553.199999999999
520000.0,5571000.0,6342.5
521000.0,5571000.0,5105.4
522000.0,5571000.0,4117.9
523000.0,5571000.0,5586.700000000001
524000.0,5571000.0,5976.900000000001
525000.0,5571000.0,4649.8
526000.0,5571000.0,4151.599999999999
527000.0,5571000.0,4151.3
528000.0,5571000.0,4469.5
529000.0,5571000.0,5416.900000000001
530000.0,5571000.0,5227.3
531000.0,5571000.0,6127.4
532000.0,5571000.0,6107.5
533000.0,5571000.0,6126.1
534000.0,5571000.0,6342.9
535000.0,5571000.0,6434.8
536000.0,5571000.0,6343.7
537000.0,5571000.0,6596.2
538000.0,5571000.0,6573.0
539000.0,5571000.0,6448.7
540000.0,5571000.0,6455.299999999999
541000.0,5571000.0,6684.9
542000.0,5571000.0,7087.6
543000.0,5571000.0,6553.5
544000.0,5571000.0,6810.299999999999
545000.0,5571000.0,7066.4
546000.0,5571000.0,6176.2
547000.0,5571000.0,5829.200000000001
548000.0,5571000.0,6699.9
549000.0,5571000.0,6862.200000000001
550000.0,5571000.0,6776.700000000001
438000.0,5570000.0,5968.5
439000.0,5570000.0,6389.9
440000.0,5570000.0,6267.3
441000.0,5570000.0,6279.8
442000.0,5570000.0,5942.9
443000.0,5570000.0,5243.4
444000.0,5570000.0,4866.8
445000.0,5570000.0,4880.900000000001
446000.0,5570000.0,5495.699999999999
447000.0,5570000.0,5015.8
448000.0,5570000.0,4867.9
449000.0,5570000.0,5050.6
450000.0,5570000.0,5713.7
451000.0,5570000.0,5927.4
452000.0,5570000.0,6429.700000000001
453000.0,5570000.0,6692.3
454000.0,5570000.0,7158.0
455000.0,5570000.0,7131.2
456000.0,5570000.0,7848.7
457000.0,5570000.0,8823.099999999999
458000.0,5570000.0,8750.599999999999
459000.0,5570000.0,8127.1
460000.0,5570000.0,7804.0
461000.0,5570000.0,6938.199999999999
462000.0,5570000.0,7158.7
463000.0,5570000.0,8045.1
464000.0,5570000.0,7104.200000000001
465000.0,5570000.0,6519.300000000001
466000.0,5570000.0,6204.700000000001
467000.0,5570000.0,6367.200000000001
468000.0,5570000.0,6084.5
469000.0,5570000.0,6142.1
470000.0,5570000.0,6037.200000000001
471000.0,5570000.0,5666.3
472000.0,5570000.0,5748.099999999999
473000.0,5570000.0,5192.9
474000.0,5570000.0,5281.3
475000.0,5570000.0,5112.200000000001
476000.0,5570000.0,4846.9
477000.0,5570000.0,4769.4
478000.0,5570000.0,4413.1
479000.0,5570000.0,4279.700000000001
480000.0,5570000.0,4223.8
481000.0,5570000.0,4126.0
482000.0,5570000.0,4166.3
483000.0,5570000.0,4001.5
484000.0,5570000.0,3848.0
485000.0,5570000.0,3811.5999999999995
486000.0,5570000.0,3881.3999999999996
487000.0,5570000.0,3986.8
488000.0,5570000.0,4127.4
489000.0,5570000.0,4481.3
490000.0,5570000.0,4485.8
491000.0,5570000.0,4308.2
492000.0,5570000.0,4374.3
493000.0,5570000.0,4477.5
494000.0,5570000.0,4143.6
495000.0,5570000.0,3896.3999999999996
496000.0,5570000.0,3861.9
497000.0,5570000.0,3846.9
498000.0,5570000.0,3852.7999999999997
499000.0,5570000.0,3850.7
500000.0,5570000.0,3861.5
501000.0,5570000.0,3956.8
502000.0,5570000.0,4594.5
503000.0,5570000.0,5006.0
504000.0,5570000.0,4770.299999999999
505000.0,5570000.0,4470.4
506000.0,5570000.0,4171.5
507000.0,5570000.0,4012.8999999999996
508000.0,5570000.0,4113.400000000001
509000.0,5570000.0,4593.1
510000.0,5570000.0,5381.1
511000.0,5570000.0,5130.4
512000.0,5570000.0,5899.8
513000.0,5570000.0,4985.7
514000.0,5570000.0,5501.2
515000.0,5570000.0,5969.300000000001
516000.0,5570000.0,6213.0
517000.0,5570000.0,6179.1
518000.0,5570000.0,6576.900000000001
519000.0,5570000.0,6513.9
520000.0,5570000.0,5993.199999999999
521000.0,5570000.0,5592.6
522000.0,5570000.0,4104.6
523000.0,5570000.0,5393.8
524000.0,5570000.0,6072.5
525000.0,5570000.0,5429.5
526000.0,5570000.0,4124.3
527000.0,5570000.0,4425.8
528000.0,5570000.0,5228.0
529000.0,5570000.0,6189.300000000001
530000.0,5570000.0,6809.8
531000.0,5570000.0,5625.9
532000.0,5570000.0,6696.3
533000.0,5570000.0,6738.4
534000.0,5570000.0,7125.599999999999
535000.0,5570000.0,7102.1
536000.0,5570000.0,6868.8
537000.0,5570000.0,5874.5
538000.0,5570000.0,5878.299999999999
539000.0,5570000.0,6722.6
540000.0,5570000.0,5927.6
541000.0,5570000.0,6406.700000000001
542000.0,5570000.0,6565.299999999999
543000.0,5570000.0,6364.5
544000.0,5570000.0,6874.400000000001
545000.0,5570000.0,6687.1
546000.0,5570000.0,6235.699999999999
547000.0,5570000.0,5993.0
548000.0,5570000.0,6349.1
549000.0,5570000.0,6887.4
432000.0,5569000.0,5247.3
433000.0,5569000.0,4714.099999999999
437000.0,5569000.0,5154.700000000001
438000.0,5569000.0,6031.4
439000.0,5569000.0,6182.200000000001
440000.0,5569000.0,6084.200000000001
441000.0,5569000.0,6286.4
442000.0,5569000.0,5786.5
443000.0,5569000.0,5269.700000000001
444000.0,5569000.0,5521.2
445000.0,5569000.0,5412.6
446000.0,5569000.0,5255.799999999999
447000.0,5569000.0,5138.7
448000.0,5569000.0,5112.200000000001
449000.0,5569000.0,4802.3
450000.0,5569000.0,5355.1
451000.0,5569000.0,6115.9
452000.0,5569000.0,5625.699999999999
453000.0,5569000.0,6362.6
454000.0,5569000.0,7125.0
455000.0,5569000.0,7028.8
456000.0,5569000.0,7294.700000000001
457000.0,5569000.0,8349.9
458000.0,5569000.0,7966.900000000001
459000.0,5569000.0,7702.3
460000.0,5569000.0,7319.300000000001
461000.0,5569000.0,8170.4
462000.0,5569000.0,8274.400000000001
463000.0,5569000.0,7711.700000000001
464000.0,5569000.0,7502.0
465000.0,5569000.0,6566.900000000001
466000.0,5569000.0,6643.6
467000.0,5569000.0,6864.400000000001
468000.0,5569000.0,7037.0
469000.0,5569000.0,6828.099999999999
470000.0,5569000.0,7358.5
471000.0,5569000.0,6684.1
472000.0,5569000.0,6927.7
473000.0,5569000.0,6096.5
474000.0,5569000.0,5353.6
475000.0,5569000.0,4752.799999999999
476000.0,5569000.0,4823.400000000001
477000.0,5569000.0,4605.299999999999
478000.0,5569000.0,4468.6
479000.0,5569000.0,4296.1
480000.0,5569000.0,4168.3
481000.0,5569000.0,4044.3
482000.0,5569000.0,3996.3
483000.0,5569000.0,3897.3
484000.0,5569000.0,3801.0
485000.0,5569000.0,3804.4
486000.0,5569000.0,4087.6
487000.0,5569000.0,4431.599999999999
488000.0,5569000.0,4462.799999999999
489000.0,5569000.0,4423.5
490000.0,5569000.0,4283.1
491000.0,5569000.0,4245.299999999999
492000.0,5569000.0,4567.6
493000.0,5569000.0,4467.799999999999
494000.0,5569000.0,4021.9
495000.0,5569000.0,3844.4
496000.0,5569000.0,3883.6000000000004
497000.0,5569000.0,3885.7999999999997
498000.0,5569000.0,3905.5
499000.0,5569000.0,3954.9
500000.0,5569000.0,4250.8
501000.0,5569000.0,4344.9
502000.0,5569000.0,4891.4
503000.0,5569000.0,4591.3
504000.0,5569000.0,4964.700000000001
505000.0,5569000.0,5313.0
506000.0,5569000.0,4528.6
507000.0,5569000.0,4233.400000000001
508000.0,5569000.0,4206.3
509000.0,5569000.0,4246.0
510000.0,5569000.0,4542.0
511000.0,5569000.0,5671.700000000001
512000.0,5569000.0,5143.099999999999
513000.0,5569000.0,5778.5
514000.0,5569000.0,6156.2
515000.0,5569000.0,6597.3
516000.0,5569000.0,5964.700000000001
517000.0,5569000.0,6691.2
518000.0,5569000.0,6680.0
519000.0,5569000.0,5497.0
520000.0,5569000.0,5980.299999999999
521000.0,5569000.0,5921.3
522000.0,5569000.0,4065.0
523000.0,5569000.0,4562.6
524000.0,5569000.0,5457.9
525000.0,5569000.0,4495.299999999999
526000.0,5569000.0,4144.8
527000.0,5569000.0,4331.5
528000.0,5569000.0,4928.2
529000.0,5569000.0,5146.4
530000.0,5569000.0,6663.5
531000.0,5569000.0,6792.0
532000.0,5569000.0,7397.200000000001
533000.0,5569000.0,7114.9
534000.0,5569000.0,7224.200000000001
535000.0,5569000.0,6985.799999999999
536000.0,5569000.0,6996.3
537000.0,5569000.0,5867.6
538000.0,5569000.0,5559.400000000001
539000.0,5569000.0,6399.700000000001
540000.0,5569000.0,6696.1
541000.0,5569000.0,6003.4
542000.0,5569000.0,6357.1
543000.0,5569000.0,5470.4
544000.0,5569000.0,6350.599999999999
545000.0,5569000.0,6283.9
546000.0,5569000.0,6073.199999999999
431000.0,5568000.0,5286.700000000001
432000.0,5568000.0,5231.5
433000.0,5568000.0,4954.2
434000.0,5568000.0,5115.5
435000.0,5568000.0,5706.900000000001
437000.0,5568000.0,5758.099999999999
438000.0,5568000.0,5451.700000000001
439000.0,5568000.0,5740.599999999999
440000.0,5568000.0,5792.200000000001
441000.0,5568000.0,6399.9
442000.0,5568000.0,6198.199999999999
443000.0,5568000.0,6196.800000000001
444000.0,5568000.0,5749.700000000001
445000.0,5568000.0,5650.4
446000.0,5568000.0,4817.7
447000.0,5568000.0,5379.300000000001
448000.0,5568000.0,5295.299999999999
449000.0,5568000.0,5251.4
450000.0,5568000.0,4954.4
451000.0,5568000.0,5272.200000000001
452000.0,5568000.0,6376.0
453000.0,5568000.0,6050.599999999999
454000.0,5568000.0,6914.5
455000.0,5568000.0,6281.2
456000.0,5568000.0,6907.1
457000.0,5568000.0,7728.199999999999
458000.0,5568000.0,8526.900000000001
459000.0,5568000.0,7986.5
460000.0,5568000.0,7507.6
461000.0,5568000.0,7446.1
462000.0,5568000.0,8275.3
463000.0,5568000.0,8266.4
464000.0,5568000.0,8259.8
465000.0,5568000.0,7255.5
466000.0,5568000.0,7490.0
467000.0,5568000.0,8480.1
468000.0,5568000.0,7585.5
469000.0,5568000.0,6528.8
470000.0,5568000.0,6129.700000000001
471000.0,5568000.0,6412.200000000001
472000.0,5568000.0,6122.0
473000.0,5568000.0,5567.5
474000.0,5568000.0,4975.0
475000.0,5568000.0,4684.700000000001
476000.0,5568000.0,4506.5
477000.0,5568000.0,4643.7
478000.0,5568000.0,4387.6
479000.0,5568000.0,4255.1
480000.0,5568000.0,4094.2
481000.0,5568000.0,4031.3
482000.0,5568000.0,4179.2
483000.0,5568000.0,3800.2999999999997
484000.0,5568000.0,3793.7
485000.0,5568000.0,3930.3999999999996
486000.0,5568000.0,4131.2
487000.0,5568000.0,4575.7
488000.0,5568000.0,4525.900000000001
489000.0,5568000.0,4259.6
490000.0,5568000.0,4307.5
491000.0,5568000.0,4442.3
492000.0,5568000.0,4202.200000000001
493000.0,5568000.0,4126.3
494000.0,5568000.0,3821.1000000000004
495000.0,5568000.0,3829.7000000000003
496000.0,5568000.0,3843.7
497000.0,5568000.0,3994.9
498000.0,5568000.0,4203.9
499000.0,5568000.0,4298.5
500000.0,5568000.0,4670.2
501000.0,5568000.0,4564.5
502000.0,5568000.0,4360.900000000001
503000.0,5568000.0,4322.4
504000.0,5568000.0,4938.8
505000.0,5568000.0,4666.9
506000.0,5568000.0,4574.9
507000.0,5568000.0,4583.5
508000.0,5568000.0,4699.2
509000.0,5568000.0,4722.5
510000.0,5568000.0,5369.400000000001
511000.0,5568000.0,5582.799999999999
512000.0,5568000.0,5374.9
513000.0,5568000.0,4559.700000000001
514000.0,5568000.0,5421.5
515000.0,5568000.0,6286.0
516000.0,5568000.0,6342.200000000001
517000.0,5568000.0,6494.5
518000.0,5568000.0,6238.0
519000.0,5568000.0,5822.4
520000.0,5568000.0,4841.9
521000.0,5568000.0,4786.5
522000.0,5568000.0,4067.5
523000.0,5568000.0,4244.8
524000.0,5568000.0,4100.7
525000.0,5568000.0,4087.5
526000.0,5568000.0,4541.599999999999
527000.0,5568000.0,4758.7
528000.0,5568000.0,4839.2
529000.0,5568000.0,4578.6
530000.0,5568000.0,5604.1
531000.0,5568000.0,6791.0
532000.0,5568000.0,7525.699999999999
533000.0,5568000.0,7381.4
534000.0,5568000.0,6842.1
535000.0,5568000.0,6107.1
536000.0,5568000.0,5995.0
537000.0,5568000.0,5133.3
538000.0,5568000.0,5354.0
539000.0,5568000.0,5183.7
540000.0,5568000.0,5627.799999999999
541000.0,5568000.0,6121.900000000001
542000.0,5568000.0,6011.3
543000.0,5568000.0,5416.6
544000.0,5568000.0,5956.800000000001
545000.0,5568000.0,6156.0
546000.0,5568000.0,4994.0
432000.0,5567000.0,5621.2
433000.0,5567000.0,4408.7
434000.0,5567000.0,5469.0
435000.0,5567000.0,5511.4
436000.0,5567000.0,5534.8
437000.0,5567000.0,5011.599999999999
438000.0,5567000.0,6080.799999999999
439000.0,5567000.0,6084.300000000001
440000.0,5567000.0,6504.8
441000.0,5567000.0,6436.800000000001
442000.0,5567000.0,6650.1
443000.0,5567000.0,6083.5
444000.0,5567000.0,5784.5
445000.0,5567000.0,5759.5
446000.0,5567000.0,4935.8
447000.0,5567000.0,5053.7
448000.0,5567000.0,5545.299999999999
449000.0,5567000.0,5433.299999999999
450000.0,5567000.0,5509.6
451000.0,5567000.0,5087.9
452000.0,5567000.0,6032.9
453000.0,5567000.0,5356.1
454000.0,5567000.0,5669.8
455000.0,5567000.0,6096.0
456000.0,5567000.0,6196.900000000001
457000.0,5567000.0,7199.200000000001
458000.0,5567000.0,8433.6
459000.0,5567000.0,7533.299999999999
460000.0,5567000.0,8583.5
461000.0,5567000.0,8011.1
462000.0,5567000.0,8750.4
463000.0,5567000.0,9085.5
464000.0,5567000.0,8428.9
465000.0,5567000.0,8661.3
466000.0,5567000.0,8248.7
467000.0,5567000.0,8013.6
468000.0,5567000.0,7392.9
469000.0,5567000.0,5814.400000000001
470000.0,5567000.0,5324.700000000001
471000.0,5567000.0,5233.199999999999
472000.0,5567000.0,4988.1
473000.0,5567000.0,4842.0
474000.0,5567000.0,4776.3
475000.0,5567000.0,4485.6
476000.0,5567000.0,4451.599999999999
477000.0,5567000.0,4500.7
478000.0,5567000.0,4425.4
479000.0,5567000.0,4184.9
480000.0,5567000.0,4067.0
481000.0,5567000.0,4082.2000000000003
482000.0,5567000.0,3992.2000000000003
483000.0,5567000.0,3794.4
484000.0,5567000.0,3788.8
485000.0,5567000.0,4035.6
486000.0,5567000.0,4290.7
487000.0,5567000.0,4537.1
488000.0,5567000.0,4268.6
489000.0,5567000.0,4125.6
490000.0,5567000.0,4483.1
491000.0,5567000.0,4171.599999999999
492000.0,5567000.0,4068.3
493000.0,5567000.0,3819.2000000000003
494000.0,5567000.0,3835.7999999999997
495000.0,5567000.0,4012.2000000000003
496000.0,5567000.0,4184.8
497000.0,5567000.0,4089.9
498000.0,5567000.0,4315.4
499000.0,5567000.0,4302.0
500000.0,5567000.0,4270.7
501000.0,5567000.0,4230.1
502000.0,5567000.0,4364.9
503000.0,5567000.0,4686.4
504000.0,5567000.0,4684.8
505000.0,5567000.0,4363.6
506000.0,5567000.0,4538.0
507000.0,5567000.0,4540.2
508000.0,5567000.0,4777.1
509000.0,5567000.0,4733.1
510000.0,5567000.0,4962.0
511000.0,5567000.0,4772.4
512000.0,5567000.0,4277.9
513000.0,5567000.0,5554.1
514000.0,5567000.0,5301.6
515000.0,5567000.0,5527.6
516000.0,5567000.0,6154.9
517000.0,5567000.0,6162.1
518000.0,5567000.0,6412.5
519000.0,5567000.0,5735.0
520000.0,5567000.0,4921.599999999999
521000.0,5567000.0,4123.5
522000.0,5567000.0,4040.2999999999997
523000.0,5567000.0,4052.1000000000004
524000.0,5567000.0,4209.9
525000.0,5567000.0,4762.7
526000.0,5567000.0,5381.5
527000.0,5567000.0,4981.8
528000.0,5567000.0,5946.3
529000.0,5567000.0,5972.1
530000.0,5567000.0,5555.0
531000.0,5567000.0,6038.8
532000.0,5567000.0,6995.599999999999
533000.0,5567000.0,7221.6
534000.0,5567000.0,5784.8
535000.0,5567000.0,5200.1
536000.0,5567000.0,5339.400000000001
537000.0,5567000.0,5514.9
538000.0,5567000.0,6255.4
539000.0,5567000.0,6014.1
540000.0,5567000.0,5253.6
541000.0,5567000.0,5582.9
542000.0,5567000.0,6378.7
543000.0,5567000.0,4969.4
544000.0,5567000.0,5113.0
545000.0,5567000.0,4901.8
433000.0,5566000.0,4820.7
434000.0,5566000.0,4511.2
435000.0,5566000.0,4587.5
436000.0,5566000.0,4706.599999999999
437000.0,5566000.0,5464.9
438000.0,5566000.0,6250.0
439000.0,5566000.0,6185.9
440000.0,5566000.0,6126.800000000001
441000.0,5566000.0,5953.5
442000.0,5566000.0,6493.4
443000.0,5566000.0,6517.1
444000.0,5566000.0,6401.2
445000.0,5566000.0,5995.0
446000.0,5566000.0,5788.5
447000.0,5566000.0,5134.099999999999
448000.0,5566000.0,5650.1
449000.0,5566000.0,5712.200000000001
450000.0,5566000.0,5939.1
451000.0,5566000.0,5656.900000000001
452000.0,5566000.0,5566.900000000001
453000.0,5566000.0,6354.6
454000.0,5566000.0,6730.699999999999
455000.0,5566000.0,6826.1
456000.0,5566000.0,7195.1
457000.0,5566000.0,6726.900000000001
458000.0,5566000.0,7922.9
459000.0,5566000.0,7900.900000000001
460000.0,5566000.0,9255.3
461000.0,5566000.0,9377.9
462000.0,5566000.0,9348.300000000001
463000.0,5566000.0,9551.4
464000.0,5566000.0,9457.5
465000.0,5566000.0,8769.6
466000.0,5566000.0,7414.8
467000.0,5566000.0,7036.3
468000.0,5566000.0,6202.799999999999
469000.0,5566000.0,5522.1
470000.0,5566000.0,4971.4
471000.0,5566000.0,4777.1
472000.0,5566000.0,4568.7
473000.0,5566000.0,4805.5
474000.0,5566000.0,4502.200000000001
475000.0,5566000.0,4414.8
476000.0,5566000.0,4345.1
477000.0,5566000.0,4361.2
478000.0,5566000.0,4453.400000000001
479000.0,5566000.0,4169.5
480000.0,5566000.0,4004.5
481000.0,5566000.0,3868.4000000000005
482000.0,5566000.0,3853.4000000000005
483000.0,5566000.0,3776.7000000000003
484000.0,5566000.0,3875.2
485000.0,5566000.0,4228.3
486000.0,5566000.0,4578.400000000001
487000.0,5566000.0,4460.2
488000.0,5566000.0,4424.0
489000.0,5566000.0,4261.5
490000.0,5566000.0,3964.2
491000.0,5566000.0,3968.6000000000004
492000.0,5566000.0,3808.2
493000.0,5566000.0,3883.2
494000.0,5566000.0,3835.4
495000.0,5566000.0,3959.4
496000.0,5566000.0,4212.0
497000.0,5566000.0,4311.4
498000.0,5566000.0,4260.8
499000.0,5566000.0,4257.200000000001
500000.0,5566000.0,4221.0
501000.0,5566000.0,4139.6
502000.0,5566000.0,4590.900000000001
503000.0,5566000.0,4535.6
504000.0,5566000.0,4277.3
505000.0,5566000.0,4417.7
506000.0,5566000.0,4686.9
507000.0,5566000.0,4422.4
508000.0,5566000.0,4283.9
509000.0,5566000.0,4248.1
510000.0,5566000.0,4448.7
511000.0,5566000.0,4151.5
512000.0,5566000.0,4935.2
513000.0,5566000.0,5225.9
514000.0,5566000.0,5201.599999999999
515000.0,5566000.0,5756.3
516000.0,5566000.0,6273.199999999999
517000.0,5566000.0,6427.3
518000.0,5566000.0,6026.800000000001
519000.0,5566000.0,5189.099999999999
520000.0,5566000.0,4229.9
521000.0,5566000.0,4030.0
522000.0,5566000.0,4843.9
523000.0,5566000.0,4917.200000000001
524000.0,5566000.0,5407.1
525000.0,5566000.0,5503.099999999999
526000.0,5566000.0,6189.5
527000.0,5566000.0,5588.9
528000.0,5566000.0,6274.9
529000.0,5566000.0,5974.9
530000.0,5566000.0,6365.0
531000.0,5566000.0,6258.9
532000.0,5566000.0,6061.1
533000.0,5566000.0,6544.9
534000.0,5566000.0,5562.200000000001
535000.0,5566000.0,6284.400000000001
536000.0,5566000.0,6487.7
537000.0,5566000.0,6348.9
538000.0,5566000.0,6636.1
539000.0,5566000.0,6400.0
540000.0,5566000.0,5528.099999999999
541000.0,5566000.0,5021.5
542000.0,5566000.0,5742.4
543000.0,5566000.0,5165.699999999999
544000.0,5566000.0,5297.4
545000.0,5566000.0,6301.900000000001
546000.0,5566000.0,6406.2
428000.0,5565000.0,6302.6
433000.0,5565000.0,4730.2
434000.0,5565000.0,5550.5
435000.0,5565000.0,5941.2
436000.0,5565000.0,5449.0
437000.0,5565000.0,5821.3
438000.0,5565000.0,5763.7
439000.0,5565000.0,5476.0
440000.0,5565000.0,5700.299999999999
441000.0,5565000.0,6056.5
442000.0,5565000.0,6493.4
443000.0,5565000.0,6681.4
444000.0,5565000.0,6056.700000000001
445000.0,5565000.0,5703.199999999999
446000.0,5565000.0,6274.8
447000.0,5565000.0,5372.9
448000.0,5565000.0,5674.0
449000.0,5565000.0,5741.700000000001
450000.0,5565000.0,6148.0
451000.0,5565000.0,5515.1
452000.0,5565000.0,5564.400000000001
453000.0,5565000.0,6593.5
454000.0,5565000.0,7200.1
455000.0,5565000.0,6382.0
456000.0,5565000.0,6484.9
457000.0,5565000.0,7018.099999999999
458000.0,5565000.0,7261.2
459000.0,5565000.0,9015.800000000001
460000.0,5565000.0,8890.3
461000.0,5565000.0,10402.3
462000.0,5565000.0,10609.099999999999
463000.0,5565000.0,8803.0
464000.0,5565000.0,8216.5
465000.0,5565000.0,7502.6
466000.0,5565000.0,7765.799999999999
467000.0,5565000.0,6338.099999999999
468000.0,5565000.0,5636.5
469000.0,5565000.0,5234.9
470000.0,5565000.0,4921.9
471000.0,5565000.0,4696.9
472000.0,5565000.0,4582.4
473000.0,5565000.0,4605.0
474000.0,5565000.0,4769.5
475000.0,5565000.0,4319.6
476000.0,5565000.0,4230.900000000001
477000.0,5565000.0,4378.1
478000.0,5565000.0,4288.1
479000.0,5565000.0,4301.3
480000.0,5565000.0,4256.0
481000.0,5565000.0,4174.4
482000.0,5565000.0,3948.1
483000.0,5565000.0,3771.9
484000.0,5565000.0,3946.7
485000.0,5565000.0,4375.6
486000.0,5565000.0,4302.5
487000.0,5565000.0,4250.8
488000.0,5565000.0,4341.1
489000.0,5565000.0,4067.7999999999997
490000.0,5565000.0,4044.8
491000.0,5565000.0,3851.3
492000.0,5565000.0,4334.2
493000.0,5565000.0,4319.4
494000.0,5565000.0,4168.1
495000.0,5565000.0,4260.1
496000.0,5565000.0,4289.8
497000.0,5565000.0,4226.0
498000.0,5565000.0,4198.3
499000.0,5565000.0,4096.9
500000.0,5565000.0,4071.5999999999995
501000.0,5565000.0,4328.400000000001
502000.0,5565000.0,4999.8
503000.0,5565000.0,4320.2
504000.0,5565000.0,4507.5
505000.0,5565000.0,5314.200000000001
506000.0,5565000.0,4569.3
507000.0,5565000.0,4186.5
508000.0,5565000.0,4355.6
509000.0,5565000.0,4112.7
510000.0,5565000.0,4155.0
511000.0,5565000.0,4190.900000000001
512000.0,5565000.0,5179.400000000001
513000.0,5565000.0,5153.099999999999
514000.0,5565000.0,4965.0
515000.0,5565000.0,5615.2
516000.0,5565000.0,5795.2
517000.0,5565000.0,5264.300000000001
518000.0,5565000.0,4870.4
519000.0,5565000.0,4776.3
520000.0,5565000.0,4009.0999999999995
521000.0,5565000.0,4058.6000000000004
522000.0,5565000.0,4524.0
523000.0,5565000.0,4239.0
524000.0,5565000.0,4498.1
525000.0,5565000.0,4957.1
526000.0,5565000.0,5958.4
527000.0,5565000.0,6270.0
528000.0,5565000.0,5761.800000000001
529000.0,5565000.0,6555.599999999999
530000.0,5565000.0,6432.6
531000.0,5565000.0,6818.5
532000.0,5565000.0,6914.9
533000.0,5565000.0,6367.7
534000.0,5565000.0,5324.700000000001
535000.0,5565000.0,6105.4
537000.0,5565000.0,7040.5
538000.0,5565000.0,7435.4
539000.0,5565000.0,6928.9
540000.0,5565000.0,6106.2
541000.0,5565000.0,5325.9
542000.0,5565000.0,5359.200000000001
543000.0,5565000.0,4758.5
544000.0,5565000.0,5831.900000000001
545000.0,5565000.0,5728.6
546000.0,5565000.0,5543.0
547000.0,5565000.0,6743.199999999999
427000.0,5564000.0,7156.5
428000.0,5564000.0,6946.900000000001
429000.0,5564000.0,6469.300000000001
432000.0,5564000.0,5467.1
433000.0,5564000.0,5323.8
434000.0,5564000.0,5233.8
435000.0,5564000.0,5817.7
436000.0,5564000.0,5963.6
437000.0,5564000.0,5634.6
438000.0,5564000.0,6054.5
439000.0,5564000.0,6330.599999999999
440000.0,5564000.0,5990.599999999999
441000.0,5564000.0,6572.0
442000.0,5564000.0,6222.9
443000.0,5564000.0,6805.4
444000.0,5564000.0,6429.400000000001
445000.0,5564000.0,5430.799999999999
446000.0,5564000.0,6635.299999999999
447000.0,5564000.0,5513.6
448000.0,5564000.0,5697.200000000001
449000.0,5564000.0,6044.300000000001
450000.0,5564000.0,6345.299999999999
451000.0,5564000.0,5691.4
452000.0,5564000.0,5527.5
453000.0,5564000.0,6256.700000000001
454000.0,5564000.0,6446.4
455000.0,5564000.0,6439.0
456000.0,5564000.0,6517.4
457000.0,5564000.0,6949.300000000001
458000.0,5564000.0,7660.699999999999
459000.0,5564000.0,8062.9
460000.0,5564000.0,9553.7
461000.0,5564000.0,10662.5
462000.0,5564000.0,9399.5
463000.0,5564000.0,8052.6
464000.0,5564000.0,7226.1
465000.0,5564000.0,6968.9
466000.0,5564000.0,7438.4
467000.0,5564000.0,6149.5
468000.0,5564000.0,5496.1
469000.0,5564000.0,5109.5
470000.0,5564000.0,4901.599999999999
471000.0,5564000.0,4676.7
472000.0,5564000.0,4400.8
473000.0,5564000.0,4347.7
474000.0,5564000.0,4368.1
475000.0,5564000.0,4307.799999999999
476000.0,5564000.0,4159.3
477000.0,5564000.0,4135.5
478000.0,5564000.0,4195.7
479000.0,5564000.0,4197.3
480000.0,5564000.0,4179.9
481000.0,5564000.0,4195.900000000001
482000.0,5564000.0,4090.2
483000.0,5564000.0,3760.7999999999997
484000.0,5564000.0,3912.6
485000.0,5564000.0,4342.4
486000.0,5564000.0,4291.0
487000.0,5564000.0,4112.6
488000.0,5564000.0,3906.0
489000.0,5564000.0,4047.5
490000.0,5564000.0,3874.3
491000.0,5564000.0,3848.2999999999997
492000.0,5564000.0,4185.1
493000.0,5564000.0,4048.6000000000004
494000.0,5564000.0,4091.1000000000004
495000.0,5564000.0,4249.5
496000.0,5564000.0,4187.9
497000.0,5564000.0,4134.4
498000.0,5564000.0,4188.5
499000.0,5564000.0,4421.8
500000.0,5564000.0,4373.2
501000.0,5564000.0,4505.8
502000.0,5564000.0,4483.9
503000.0,5564000.0,4504.0
504000.0,5564000.0,4195.900000000001
505000.0,5564000.0,4684.700000000001
506000.0,5564000.0,4492.200000000001
507000.0,5564000.0,4391.599999999999
508000.0,5564000.0,4051.0
509000.0,5564000.0,4389.4
510000.0,5564000.0,4454.3
511000.0,5564000.0,4938.2
512000.0,5564000.0,5581.700000000001
513000.0,5564000.0,5824.400000000001
514000.0,5564000.0,5249.400000000001
515000.0,5564000.0,5062.7
516000.0,5564000.0,5234.8
517000.0,5564000.0,4344.9
518000.0,5564000.0,4032.7
519000.0,5564000.0,4515.299999999999
520000.0,5564000.0,4036.7
521000.0,5564000.0,5009.3
522000.0,5564000.0,4868.8
523000.0,5564000.0,5153.8
524000.0,5564000.0,4733.6
525000.0,5564000.0,4354.0
526000.0,5564000.0,5286.4
527000.0,5564000.0,5286.800000000001
528000.0,5564000.0,6173.099999999999
529000.0,5564000.0,5757.200000000001
530000.0,5564000.0,6961.4
531000.0,5564000.0,7793.7
532000.0,5564000.0,6974.700000000001
533000.0,5564000.0,6719.300000000001
534000.0,5564000.0,5650.0
535000.0,5564000.0,5751.2
539000.0,5564000.0,6289.400000000001
542000.0,5564000.0,6039.1
543000.0,5564000.0,5802.6
544000.0,5564000.0,5011.4
426000.0,5563000.0,7600.599999999999
427000.0,5563000.0,7029.300000000001
428000.0,5563000.0,6506.3
429000.0,5563000.0,6428.199999999999
430000.0,5563000.0,6706.5
431000.0,5563000.0,5222.6
432000.0,5563000.0,5889.9
433000.0,5563000.0,6295.4
434000.0,5563000.0,5674.400000000001
435000.0,5563000.0,5564.9
436000.0,5563000.0,5907.7
437000.0,5563000.0,5923.9
438000.0,5563000.0,5644.6
439000.0,5563000.0,6668.0
440000.0,5563000.0,6659.5
441000.0,5563000.0,6688.099999999999
442000.0,5563000.0,6702.0
443000.0,5563000.0,6622.9
444000.0,5563000.0,5818.8
445000.0,5563000.0,5797.9
446000.0,5563000.0,6458.6
447000.0,5563000.0,5674.1
448000.0,5563000.0,5648.7
449000.0,5563000.0,5409.400000000001
450000.0,5563000.0,6272.4
451000.0,5563000.0,6381.6
452000.0,5563000.0,6183.0
453000.0,5563000.0,6076.4
454000.0,5563000.0,6419.9
455000.0,5563000.0,6603.6
456000.0,5563000.0,6843.8
457000.0,5563000.0,7300.9
458000.0,5563000.0,8551.6
459000.0,5563000.0,8790.2
460000.0,5563000.0,9708.099999999999
461000.0,5563000.0,9609.6
462000.0,5563000.0,9101.3
463000.0,5563000.0,8983.099999999999
464000.0,5563000.0,8683.4
465000.0,5563000.0,8265.4
466000.0,5563000.0,6132.7
467000.0,5563000.0,5849.0
468000.0,5563000.0,5314.9
469000.0,5563000.0,5149.6
470000.0,5563000.0,4978.400000000001
471000.0,5563000.0,4651.5
472000.0,5563000.0,4444.9
473000.0,5563000.0,4330.1
474000.0,5563000.0,4162.3
475000.0,5563000.0,4066.2
476000.0,5563000.0,4150.0
477000.0,5563000.0,4149.700000000001
478000.0,5563000.0,4098.1
479000.0,5563000.0,4084.7000000000003
480000.0,5563000.0,4314.0
481000.0,5563000.0,4361.599999999999
482000.0,5563000.0,3897.4
483000.0,5563000.0,3751.2
484000.0,5563000.0,3743.7
485000.0,5563000.0,4232.200000000001
486000.0,5563000.0,4104.2
487000.0,5563000.0,4036.5999999999995
488000.0,5563000.0,3845.1
489000.0,5563000.0,3783.5
490000.0,5563000.0,3799.5
491000.0,5563000.0,3879.2000000000003
492000.0,5563000.0,4139.2
493000.0,5563000.0,4203.2
494000.0,5563000.0,4191.3
495000.0,5563000.0,4192.3
496000.0,5563000.0,4307.3
497000.0,5563000.0,4115.7
498000.0,5563000.0,4071.0
499000.0,5563000.0,3972.8999999999996
500000.0,5563000.0,4180.7
501000.0,5563000.0,4321.9
502000.0,5563000.0,4550.7
503000.0,5563000.0,4334.0
504000.0,5563000.0,4139.700000000001
505000.0,5563000.0,4383.8
506000.0,5563000.0,4224.4
507000.0,5563000.0,4277.3
508000.0,5563000.0,4018.6000000000004
509000.0,5563000.0,4297.7
510000.0,5563000.0,4420.6
511000.0,5563000.0,5229.1
512000.0,5563000.0,5546.0
513000.0,5563000.0,5897.9
514000.0,5563000.0,5518.7
515000.0,5563000.0,4929.5
516000.0,5563000.0,5042.1
517000.0,5563000.0,3990.1
518000.0,5563000.0,4652.4
519000.0,5563000.0,4066.3999999999996
520000.0,5563000.0,4716.599999999999
521000.0,5563000.0,4457.7
522000.0,5563000.0,4776.1
523000.0,5563000.0,5858.199999999999
524000.0,5563000.0,5410.1
525000.0,5563000.0,4692.6
526000.0,5563000.0,5581.2
527000.0,5563000.0,6756.6
528000.0,5563000.0,6200.5
529000.0,5563000.0,6247.7
530000.0,5563000.0,6580.1
531000.0,5563000.0,7210.0
532000.0,5563000.0,6727.5
533000.0,5563000.0,6232.4
534000.0,5563000.0,6575.299999999999
535000.0,5563000.0,5663.099999999999
423000.0,5562000.0,6630.2
424000.0,5562000.0,7277.799999999999
425000.0,5562000.0,7386.4
426000.0,5562000.0,7606.0
427000.0,5562000.0,7025.1
428000.0,5562000.0,6843.199999999999
429000.0,5562000.0,6814.200000000001
430000.0,5562000.0,6834.5
431000.0,5562000.0,4947.799999999999
432000.0,5562000.0,6291.5
433000.0,5562000.0,6484.300000000001
434000.0,5562000.0,6336.700000000001
435000.0,5562000.0,5923.199999999999
436000.0,5562000.0,6118.299999999999
437000.0,5562000.0,6300.799999999999
438000.0,5562000.0,5490.599999999999
439000.0,5562000.0,5624.300000000001
440000.0,5562000.0,5702.9
441000.0,5562000.0,6105.799999999999
442000.0,5562000.0,6099.300000000001
443000.0,5562000.0,6917.4
444000.0,5562000.0,7116.700000000001
445000.0,5562000.0,6756.0
446000.0,5562000.0,6147.5
447000.0,5562000.0,5904.400000000001
448000.0,5562000.0,5768.8
449000.0,5562000.0,5923.199999999999
450000.0,5562000.0,6105.0
451000.0,5562000.0,6674.0
452000.0,5562000.0,6104.300000000001
453000.0,5562000.0,5874.1
454000.0,5562000.0,5767.6
455000.0,5562000.0,6505.1
456000.0,5562000.0,7025.699999999999
457000.0,5562000.0,7112.5
458000.0,5562000.0,7875.2
459000.0,5562000.0,8155.900000000001
460000.0,5562000.0,8678.4
461000.0,5562000.0,8703.0
462000.0,5562000.0,8663.7
463000.0,5562000.0,9800.800000000001
464000.0,5562000.0,8484.199999999999
465000.0,5562000.0,6842.4
466000.0,5562000.0,6226.6
467000.0,5562000.0,5998.7
468000.0,5562000.0,5452.9
469000.0,5562000.0,5160.299999999999
470000.0,5562000.0,4793.9
471000.0,5562000.0,4693.2
472000.0,5562000.0,4477.5
473000.0,5562000.0,4326.4
474000.0,5562000.0,4208.2
475000.0,5562000.0,4142.5
476000.0,5562000.0,3947.7
477000.0,5562000.0,4170.900000000001
478000.0,5562000.0,4067.8999999999996
479000.0,5562000.0,3910.7999999999997
480000.0,5562000.0,4206.3
481000.0,5562000.0,4310.0
482000.0,5562000.0,3852.6
483000.0,5562000.0,3781.7000000000003
484000.0,5562000.0,3741.1000000000004
485000.0,5562000.0,3822.3
486000.0,5562000.0,3828.5
487000.0,5562000.0,3978.5
488000.0,5562000.0,3787.9
489000.0,5562000.0,4095.3999999999996
490000.0,5562000.0,4506.599999999999
491000.0,5562000.0,4313.9
492000.0,5562000.0,4408.400000000001
493000.0,5562000.0,4204.700000000001
494000.0,5562000.0,4091.2
495000.0,5562000.0,4272.9
496000.0,5562000.0,4028.0
497000.0,5562000.0,4167.0
498000.0,5562000.0,3885.1
499000.0,5562000.0,3927.9
500000.0,5562000.0,4093.3
501000.0,5562000.0,4526.9
502000.0,5562000.0,4125.8
503000.0,5562000.0,4179.5
504000.0,5562000.0,4232.3
505000.0,5562000.0,4102.6
506000.0,5562000.0,4017.5
507000.0,5562000.0,3979.0999999999995
508000.0,5562000.0,4235.5
509000.0,5562000.0,4105.900000000001
510000.0,5562000.0,4034.6000000000004
511000.0,5562000.0,4530.900000000001
512000.0,5562000.0,4686.599999999999
513000.0,5562000.0,4293.7
514000.0,5562000.0,5798.8
515000.0,5562000.0,5790.0
516000.0,5562000.0,4063.8999999999996
517000.0,5562000.0,4237.1
518000.0,5562000.0,5252.6
519000.0,5562000.0,5039.5
520000.0,5562000.0,4488.5
521000.0,5562000.0,5436.3
522000.0,5562000.0,6069.6
523000.0,5562000.0,5637.7
524000.0,5562000.0,6736.900000000001
525000.0,5562000.0,5881.900000000001
526000.0,5562000.0,5205.599999999999
527000.0,5562000.0,4973.8
528000.0,5562000.0,6468.299999999999
529000.0,5562000.0,7015.799999999999
530000.0,5562000.0,7109.9
531000.0,5562000.0,6712.7
532000.0,5562000.0,6314.8
533000.0,5562000.0,5851.2
534000.0,5562000.0,5662.5
535000.0,5562000.0,5574.8
423000.0,5561000.0,6678.299999999999
424000.0,5561000.0,6627.200000000001
425000.0,5561000.0,7330.299999999999
426000.0,5561000.0,7838.200000000001
427000.0,5561000.0,7605.799999999999
428000.0,5561000.0,6568.5
429000.0,5561000.0,7136.1
430000.0,5561000.0,6265.299999999999
431000.0,5561000.0,5382.799999999999
432000.0,5561000.0,5591.1
433000.0,5561000.0,6112.200000000001
434000.0,5561000.0,6055.599999999999
435000.0,5561000.0,5421.0
436000.0,5561000.0,5866.6
437000.0,5561000.0,6278.299999999999
438000.0,5561000.0,6452.9
439000.0,5561000.0,5846.900000000001
440000.0,5561000.0,6631.0
441000.0,5561000.0,6426.6
442000.0,5561000.0,6468.5
443000.0,5561000.0,6935.299999999999
444000.0,5561000.0,6503.8
445000.0,5561000.0,6843.299999999999
446000.0,5561000.0,6181.3
447000.0,5561000.0,6026.6
448000.0,5561000.0,5638.099999999999
449000.0,5561000.0,6166.0
450000.0,5561000.0,6449.400000000001
451000.0,5561000.0,7008.0
452000.0,5561000.0,6493.099999999999
453000.0,5561000.0,6513.099999999999
454000.0,5561000.0,5924.9
455000.0,5561000.0,6787.1
456000.0,5561000.0,6490.4
457000.0,5561000.0,6655.2
458000.0,5561000.0,6787.799999999999
459000.0,5561000.0,7522.200000000001
460000.0,5561000.0,7881.599999999999
461000.0,5561000.0,7833.0
462000.0,5561000.0,7045.4
463000.0,5561000.0,7882.0
464000.0,5561000.0,7299.300000000001
465000.0,5561000.0,6299.400000000001
466000.0,5561000.0,5773.6
467000.0,5561000.0,5576.1
468000.0,5561000.0,5499.8
469000.0,5561000.0,5051.599999999999
470000.0,5561000.0,4636.0
471000.0,5561000.0,4499.099999999999
472000.0,5561000.0,4438.7
473000.0,5561000.0,4412.7
474000.0,5561000.0,4253.400000000001
475000.0,5561000.0,4145.299999999999
476000.0,5561000.0,4032.0
477000.0,5561000.0,3842.7
478000.0,5561000.0,4004.4
479000.0,5561000.0,3904.4
480000.0,5561000.0,4033.5
481000.0,5561000.0,4103.0
482000.0,5561000.0,3718.2
483000.0,5561000.0,3721.5999999999995
484000.0,5561000.0,3731.2
485000.0,5561000.0,3738.2
486000.0,5561000.0,3747.4
487000.0,5561000.0,3811.3
488000.0,5561000.0,3791.3999999999996
489000.0,5561000.0,3895.0
490000.0,5561000.0,4240.0
491000.0,5561000.0,4512.7
492000.0,5561000.0,4161.599999999999
493000.0,5561000.0,4151.599999999999
494000.0,5561000.0,3921.8
495000.0,5561000.0,4065.8
496000.0,5561000.0,4079.4
497000.0,5561000.0,4023.2
498000.0,5561000.0,3868.2999999999997
499000.0,5561000.0,4310.900000000001
500000.0,5561000.0,4394.8
501000.0,5561000.0,4344.099999999999
502000.0,5561000.0,4079.8
503000.0,5561000.0,4122.5
504000.0,5561000.0,3967.3
505000.0,5561000.0,3946.5999999999995
506000.0,5561000.0,3999.4
507000.0,5561000.0,4254.099999999999
508000.0,5561000.0,3947.6
509000.0,5561000.0,3882.3
510000.0,5561000.0,3889.8
511000.0,5561000.0,3909.3
512000.0,5561000.0,3921.3999999999996
513000.0,5561000.0,3980.2999999999997
514000.0,5561000.0,3966.2
515000.0,5561000.0,4104.2
516000.0,5561000.0,4000.2
517000.0,5561000.0,4484.700000000001
518000.0,5561000.0,5206.4
519000.0,5561000.0,5146.1
520000.0,5561000.0,4563.2
521000.0,5561000.0,4427.4
522000.0,5561000.0,4809.8
523000.0,5561000.0,5099.9
524000.0,5561000.0,6073.8
525000.0,5561000.0,7039.1
526000.0,5561000.0,6824.5
527000.0,5561000.0,6630.5
528000.0,5561000.0,5408.6
529000.0,5561000.0,7064.400000000001
530000.0,5561000.0,7113.199999999999
531000.0,5561000.0,6880.1
532000.0,5561000.0,6937.4
533000.0,5561000.0,6718.6
534000.0,5561000.0,5626.900000000001
535000.0,5561000.0,6141.5
536000.0,5561000.0,5750.5
422000.0,5560000.0,6537.9
423000.0,5560000.0,6530.9
424000.0,5560000.0,6728.9
425000.0,5560000.0,6971.6
426000.0,5560000.0,7733.0
427000.0,5560000.0,7195.699999999999
428000.0,5560000.0,7160.599999999999
429000.0,5560000.0,6840.799999999999
430000.0,5560000.0,6435.0
431000.0,5560000.0,6617.1
432000.0,5560000.0,6504.700000000001
433000.0,5560000.0,5580.4
434000.0,5560000.0,6012.799999999999
435000.0,5560000.0,5899.400000000001
436000.0,5560000.0,6035.299999999999
437000.0,5560000.0,6148.7
438000.0,5560000.0,6253.9
439000.0,5560000.0,6715.2
440000.0,5560000.0,6955.9
441000.0,5560000.0,6570.4
442000.0,5560000.0,6674.200000000001
443000.0,5560000.0,7197.3
444000.0,5560000.0,7205.2
445000.0,5560000.0,7307.6
446000.0,5560000.0,6677.799999999999
447000.0,5560000.0,6657.3
448000.0,5560000.0,5935.1
449000.0,5560000.0,6148.9
450000.0,5560000.0,6236.3
451000.0,5560000.0,6879.300000000001
452000.0,5560000.0,7505.299999999999
453000.0,5560000.0,6534.300000000001
454000.0,5560000.0,5688.6
455000.0,5560000.0,5756.6
456000.0,5560000.0,6381.5
457000.0,5560000.0,6075.4
458000.0,5560000.0,7181.1
459000.0,5560000.0,8007.3
460000.0,5560000.0,7628.6
461000.0,5560000.0,7215.1
462000.0,5560000.0,6488.4
463000.0,5560000.0,6693.4
464000.0,5560000.0,6289.9
465000.0,5560000.0,5522.3
466000.0,5560000.0,5407.200000000001
467000.0,5560000.0,5171.900000000001
468000.0,5560000.0,5216.4
469000.0,5560000.0,4686.2
470000.0,5560000.0,4589.6
471000.0,5560000.0,4363.5
472000.0,5560000.0,4330.4
473000.0,5560000.0,4102.200000000001
474000.0,5560000.0,4004.9
475000.0,5560000.0,4123.8
476000.0,5560000.0,4000.7
477000.0,5560000.0,3818.2999999999997
478000.0,5560000.0,3943.1
479000.0,5560000.0,3856.1000000000004
480000.0,5560000.0,3765.2999999999997
481000.0,5560000.0,3860.1
482000.0,5560000.0,3717.1
483000.0,5560000.0,3892.3
484000.0,5560000.0,3800.0
485000.0,5560000.0,3891.0
486000.0,5560000.0,3845.7
487000.0,5560000.0,3850.7999999999997
488000.0,5560000.0,4111.9
489000.0,5560000.0,4221.4
490000.0,5560000.0,4311.2
491000.0,5560000.0,4300.6
492000.0,5560000.0,4202.0
493000.0,5560000.0,4116.5
494000.0,5560000.0,3912.4
495000.0,5560000.0,3844.3
496000.0,5560000.0,3999.7000000000003
497000.0,5560000.0,4032.3
498000.0,5560000.0,4189.2
499000.0,5560000.0,4146.3
500000.0,5560000.0,4103.5
501000.0,5560000.0,4026.7
502000.0,5560000.0,4258.400000000001
503000.0,5560000.0,3965.2
504000.0,5560000.0,4003.1
505000.0,5560000.0,4191.1
506000.0,5560000.0,4246.3
507000.0,5560000.0,3890.2
508000.0,5560000.0,3860.6
509000.0,5560000.0,3875.9000000000005
510000.0,5560000.0,3881.5
511000.0,5560000.0,3906.0
512000.0,5560000.0,3908.2999999999997
513000.0,5560000.0,3948.7
514000.0,5560000.0,4046.2
515000.0,5560000.0,4067.6
516000.0,5560000.0,5434.700000000001
517000.0,5560000.0,6012.3
518000.0,5560000.0,6398.199999999999
519000.0,5560000.0,4990.6
520000.0,5560000.0,4357.799999999999
521000.0,5560000.0,6007.0
522000.0,5560000.0,4996.7
523000.0,5560000.0,4882.7
524000.0,5560000.0,5455.9
525000.0,5560000.0,6912.7
526000.0,5560000.0,7683.099999999999
527000.0,5560000.0,7690.4
528000.0,5560000.0,7150.1
529000.0,5560000.0,6533.199999999999
530000.0,5560000.0,7433.5
531000.0,5560000.0,7571.4
532000.0,5560000.0,6912.799999999999
533000.0,5560000.0,6362.200000000001
534000.0,5560000.0,6344.1
535000.0,5560000.0,6730.599999999999
421000.0,5559000.0,6231.2
422000.0,5559000.0,6061.6
423000.0,5559000.0,6825.0
424000.0,5559000.0,6988.0
425000.0,5559000.0,7654.700000000001
426000.0,5559000.0,7640.299999999999
427000.0,5559000.0,7807.9
428000.0,5559000.0,7582.9
429000.0,5559000.0,7475.599999999999
430000.0,5559000.0,6957.0
431000.0,5559000.0,6757.3
432000.0,5559000.0,6133.299999999999
433000.0,5559000.0,6007.5
434000.0,5559000.0,6036.1
435000.0,5559000.0,6411.800000000001
436000.0,5559000.0,6356.800000000001
437000.0,5559000.0,6171.4
438000.0,5559000.0,6860.299999999999
439000.0,5559000.0,7137.5
440000.0,5559000.0,7073.299999999999
441000.0,5559000.0,7305.0
442000.0,5559000.0,6684.400000000001
443000.0,5559000.0,6974.6
444000.0,5559000.0,6841.3
445000.0,5559000.0,6943.199999999999
446000.0,5559000.0,7671.3
447000.0,5559000.0,7333.199999999999
448000.0,5559000.0,6129.9
449000.0,5559000.0,5766.3
450000.0,5559000.0,6177.3
451000.0,5559000.0,7109.700000000001
452000.0,5559000.0,7230.2
453000.0,5559000.0,6935.799999999999
454000.0,5559000.0,5581.900000000001
455000.0,5559000.0,6235.4
456000.0,5559000.0,5616.2
457000.0,5559000.0,6511.700000000001
458000.0,5559000.0,7318.299999999999
459000.0,5559000.0,6653.9
460000.0,5559000.0,6476.1
461000.0,5559000.0,5780.699999999999
462000.0,5559000.0,6390.799999999999
463000.0,5559000.0,6026.5
464000.0,5559000.0,5221.0
465000.0,5559000.0,5118.0
466000.0,5559000.0,5030.5
467000.0,5559000.0,4734.2
468000.0,5559000.0,4859.3
469000.0,5559000.0,4751.2
470000.0,5559000.0,4373.8
471000.0,5559000.0,4169.6
472000.0,5559000.0,4187.9
473000.0,5559000.0,4144.6
474000.0,5559000.0,3979.0
475000.0,5559000.0,3778.8999999999996
476000.0,5559000.0,3805.4
477000.0,5559000.0,3824.6
478000.0,5559000.0,3739.5
479000.0,5559000.0,3748.6000000000004
480000.0,5559000.0,3743.5
481000.0,5559000.0,3761.3
482000.0,5559000.0,4080.0
483000.0,5559000.0,4201.4
484000.0,5559000.0,4067.6
485000.0,5559000.0,4068.0
486000.0,5559000.0,3968.8
487000.0,5559000.0,3970.9000000000005
488000.0,5559000.0,4515.1
489000.0,5559000.0,4401.0
490000.0,5559000.0,4488.2
491000.0,5559000.0,4066.5999999999995
492000.0,5559000.0,3874.5
493000.0,5559000.0,3938.7
494000.0,5559000.0,3850.9000000000005
495000.0,5559000.0,3765.7999999999997
496000.0,5559000.0,3919.6
497000.0,5559000.0,3965.5
498000.0,5559000.0,3961.8
499000.0,5559000.0,3925.2999999999997
500000.0,5559000.0,3911.2
501000.0,5559000.0,4042.2000000000003
502000.0,5559000.0,3919.7000000000003
503000.0,5559000.0,3868.8
504000.0,5559000.0,4275.7
505000.0,5559000.0,4128.7
506000.0,5559000.0,3852.2000000000003
507000.0,5559000.0,3849.7000000000003
508000.0,5559000.0,3864.7000000000003
509000.0,5559000.0,3897.9
510000.0,5559000.0,3992.8999999999996
511000.0,5559000.0,4328.7
512000.0,5559000.0,4320.4
513000.0,5559000.0,4329.5
514000.0,5559000.0,4234.099999999999
515000.0,5559000.0,4399.700000000001
516000.0,5559000.0,4691.3
517000.0,5559000.0,5278.7
518000.0,5559000.0,6342.5
519000.0,5559000.0,4669.700000000001
520000.0,5559000.0,4380.4
521000.0,5559000.0,5175.1
522000.0,5559000.0,6484.5
523000.0,5559000.0,5952.6
524000.0,5559000.0,5840.699999999999
525000.0,5559000.0,6476.900000000001
526000.0,5559000.0,7617.1
527000.0,5559000.0,7523.199999999999
528000.0,5559000.0,7492.5
529000.0,5559000.0,7561.800000000001
530000.0,5559000.0,7789.6
531000.0,5559000.0,6867.3
532000.0,5559000.0,7240.2
533000.0,5559000.0,6884.6
534000.0,5559000.0,6244.700000000001
535000.0,5559000.0,6951.4
421000.0,5558000.0,6488.8
422000.0,5558000.0,6493.199999999999
423000.0,5558000.0,6889.200000000001
424000.0,5558000.0,7251.0
425000.0,5558000.0,7400.299999999999
426000.0,5558000.0,6971.4
427000.0,5558000.0,6986.700000000001
428000.0,5558000.0,7765.799999999999
429000.0,5558000.0,7658.5
430000.0,5558000.0,7862.4
431000.0,5558000.0,6764.5
432000.0,5558000.0,6548.099999999999
433000.0,5558000.0,6151.4
434000.0,5558000.0,6037.3
435000.0,5558000.0,6318.8
436000.0,5558000.0,6690.699999999999
437000.0,5558000.0,6835.1
438000.0,5558000.0,7365.5
439000.0,5558000.0,6876.5
440000.0,5558000.0,7504.9
441000.0,5558000.0,6746.2
442000.0,5558000.0,6464.1
443000.0,5558000.0,6935.4
444000.0,5558000.0,6536.700000000001
445000.0,5558000.0,6935.299999999999
446000.0,5558000.0,7256.0
447000.0,5558000.0,7084.5
448000.0,5558000.0,6893.4
449000.0,5558000.0,6387.4
450000.0,5558000.0,5575.799999999999
451000.0,5558000.0,6209.0
452000.0,5558000.0,6433.099999999999
453000.0,5558000.0,6148.6
454000.0,5558000.0,5932.3
455000.0,5558000.0,5024.2
456000.0,5558000.0,6803.0
457000.0,5558000.0,6505.5
458000.0,5558000.0,5818.5
459000.0,5558000.0,5781.800000000001
460000.0,5558000.0,5697.4
461000.0,5558000.0,5571.0
462000.0,5558000.0,6252.1
463000.0,5558000.0,6160.599999999999
464000.0,5558000.0,5542.200000000001
465000.0,5558000.0,4746.0
466000.0,5558000.0,4683.8
467000.0,5558000.0,4444.6
468000.0,5558000.0,4737.0
469000.0,5558000.0,4524.3
470000.0,5558000.0,4449.2
471000.0,5558000.0,4266.4
472000.0,5558000.0,4072.0
473000.0,5558000.0,4110.2
474000.0,5558000.0,3895.1
475000.0,5558000.0,3687.5
476000.0,5558000.0,3779.0999999999995
477000.0,5558000.0,3691.3999999999996
478000.0,5558000.0,3698.4000000000005
479000.0,5558000.0,4081.1000000000004
480000.0,5558000.0,4279.099999999999
481000.0,5558000.0,3911.1000000000004
482000.0,5558000.0,4252.6
483000.0,5558000.0,4234.8
484000.0,5558000.0,4231.0
485000.0,5558000.0,4250.4
486000.0,5558000.0,4354.4
487000.0,5558000.0,4597.9
488000.0,5558000.0,4619.6
489000.0,5558000.0,4232.3
490000.0,5558000.0,4164.700000000001
491000.0,5558000.0,3815.2999999999997
492000.0,5558000.0,3773.1
493000.0,5558000.0,3756.5999999999995
494000.0,5558000.0,3758.8
495000.0,5558000.0,3757.0
496000.0,5558000.0,3763.7
497000.0,5558000.0,3764.7000000000003
498000.0,5558000.0,3808.7
499000.0,5558000.0,3812.6
500000.0,5558000.0,3871.3999999999996
501000.0,5558000.0,3872.5
502000.0,5558000.0,3820.1
503000.0,5558000.0,3859.3
504000.0,5558000.0,3813.8999999999996
505000.0,5558000.0,3828.4000000000005
506000.0,5558000.0,3842.9
507000.0,5558000.0,3895.1
508000.0,5558000.0,3930.0
509000.0,5558000.0,3966.5
510000.0,5558000.0,4121.599999999999
511000.0,5558000.0,4623.7
512000.0,5558000.0,4663.6
513000.0,5558000.0,4477.5
514000.0,5558000.0,4588.7
515000.0,5558000.0,4458.8
516000.0,5558000.0,4947.200000000001
517000.0,5558000.0,5736.5
518000.0,5558000.0,5896.4
519000.0,5558000.0,4643.5
520000.0,5558000.0,4513.5
521000.0,5558000.0,4991.5
522000.0,5558000.0,6277.6
523000.0,5558000.0,7162.5
524000.0,5558000.0,6761.800000000001
525000.0,5558000.0,6991.0
526000.0,5558000.0,7659.200000000001
527000.0,5558000.0,7607.1
528000.0,5558000.0,7246.2
529000.0,5558000.0,7428.8
530000.0,5558000.0,7300.9
531000.0,5558000.0,7680.1
532000.0,5558000.0,6697.9
533000.0,5558000.0,6450.9
534000.0,5558000.0,6416.6
535000.0,5558000.0,7126.900000000001
422000.0,5557000.0,6758.8
423000.0,5557000.0,7312.0
424000.0,5557000.0,7471.700000000001
425000.0,5557000.0,6878.099999999999
426000.0,5557000.0,7170.0
427000.0,5557000.0,6571.2
428000.0,5557000.0,7094.8
429000.0,5557000.0,7943.3
430000.0,5557000.0,7729.5
431000.0,5557000.0,7470.5
432000.0,5557000.0,7344.9
433000.0,5557000.0,6520.299999999999
434000.0,5557000.0,5397.1
435000.0,5557000.0,6802.799999999999
436000.0,5557000.0,6856.5
437000.0,5557000.0,7324.400000000001
438000.0,5557000.0,7086.3
439000.0,5557000.0,6822.7
440000.0,5557000.0,6959.0
441000.0,5557000.0,6562.9
442000.0,5557000.0,6764.9
443000.0,5557000.0,6328.4
444000.0,5557000.0,6871.1
445000.0,5557000.0,7347.3
446000.0,5557000.0,7820.4
447000.0,5557000.0,7776.2
448000.0,5557000.0,8359.1
449000.0,5557000.0,6982.200000000001
450000.0,5557000.0,5765.299999999999
451000.0,5557000.0,5329.9
452000.0,5557000.0,5950.299999999999
453000.0,5557000.0,5651.2
454000.0,5557000.0,6137.7
455000.0,5557000.0,6047.200000000001
456000.0,5557000.0,6147.3
457000.0,5557000.0,7669.9
458000.0,5557000.0,5452.0
459000.0,5557000.0,5247.5
460000.0,5557000.0,5647.3
461000.0,5557000.0,5253.199999999999
462000.0,5557000.0,5248.199999999999
463000.0,5557000.0,5878.5
464000.0,5557000.0,5305.5
465000.0,5557000.0,4605.7
466000.0,5557000.0,4406.8
467000.0,5557000.0,4404.4
468000.0,5557000.0,4408.9
469000.0,5557000.0,4426.8
470000.0,5557000.0,4267.0
471000.0,5557000.0,4152.0
472000.0,5557000.0,3969.4
473000.0,5557000.0,3921.3
474000.0,5557000.0,3772.1
475000.0,5557000.0,3675.6
476000.0,5557000.0,3836.3999999999996
477000.0,5557000.0,3912.5
