x,y,z
458000.0,5808000.0,3165.6
459000.0,5808000.0,3135.7
460000.0,5808000.0,3193.8
461000.0,5808000.0,3203.5
462000.0,5808000.0,3141.2
463000.0,5808000.0,3089.3
464000.0,5808000.0,3067.6
465000.0,5808000.0,3059.7000000000003
466000.0,5808000.0,3066.1000000000004
467000.0,5808000.0,3062.7
468000.0,5808000.0,3061.8
469000.0,5808000.0,3069.5
470000.0,5808000.0,3068.2999999999997
471000.0,5808000.0,3065.2
472000.0,5808000.0,3055.5
473000.0,5808000.0,3072.5
474000.0,5808000.0,3073.1
475000.0,5808000.0,3053.2
476000.0,5808000.0,3049.0999999999995
477000.0,5808000.0,3051.5
478000.0,5808000.0,3071.5999999999995
479000.0,5808000.0,3087.9
480000.0,5808000.0,3061.5999999999995
498000.0,5808000.0,3108.7
499000.0,5808000.0,2979.2000000000003
500000.0,5808000.0,3002.1
501000.0,5808000.0,3002.7
502000.0,5808000.0,3055.5
503000.0,5808000.0,3111.2
504000.0,5808000.0,3226.3
505000.0,5808000.0,3286.0
506000.0,5808000.0,3210.7999999999997
507000.0,5808000.0,3241.8
404000.0,5807000.0,3020.5
405000.0,5807000.0,3035.7999999999997
406000.0,5807000.0,3041.5999999999995
407000.0,5807000.0,3051.5
408000.0,5807000.0,3057.3
409000.0,5807000.0,3062.0
410000.0,5807000.0,3083.6000000000004
411000.0,5807000.0,3072.7
412000.0,5807000.0,3076.8
454000.0,5807000.0,3091.5
455000.0,5807000.0,3091.3
456000.0,5807000.0,3087.5
457000.0,5807000.0,3105.5
458000.0,5807000.0,3131.3999999999996
459000.0,5807000.0,3118.1
460000.0,5807000.0,3111.3
461000.0,5807000.0,3098.7
462000.0,5807000.0,3078.6000000000004
463000.0,5807000.0,3074.6
464000.0,5807000.0,3074.9
465000.0,5807000.0,3070.7
466000.0,5807000.0,3107.0
467000.0,5807000.0,3108.2
468000.0,5807000.0,3068.7
469000.0,5807000.0,3091.2
470000.0,5807000.0,3092.2000000000003
471000.0,5807000.0,3101.5999999999995
472000.0,5807000.0,3062.5
473000.0,5807000.0,3105.6
474000.0,5807000.0,3074.4
475000.0,5807000.0,3043.5
476000.0,5807000.0,3045.9000000000005
477000.0,5807000.0,3056.7000000000003
478000.0,5807000.0,3082.4
479000.0,5807000.0,3091.2
497000.0,5807000.0,3136.5
498000.0,5807000.0,3119.0
499000.0,5807000.0,3004.7000000000003
500000.0,5807000.0,2982.3
501000.0,5807000.0,3048.8
502000.0,5807000.0,3013.6000000000004
503000.0,5807000.0,3052.5
504000.0,5807000.0,3273.8999999999996
505000.0,5807000.0,3229.3
506000.0,5807000.0,3157.3
507000.0,5807000.0,3143.8999999999996
508000.0,5807000.0,3264.8
404000.0,5806000.0,3034.6
405000.0,5806000.0,3023.4000000000005
406000.0,5806000.0,3032.2000000000003
407000.0,5806000.0,3051.3999999999996
408000.0,5806000.0,3057.1
409000.0,5806000.0,3060.7999999999997
410000.0,5806000.0,3073.8999999999996
411000.0,5806000.0,3087.5
412000.0,5806000.0,3093.4000000000005
413000.0,5806000.0,3095.7
454000.0,5806000.0,3089.3
455000.0,5806000.0,3093.1
456000.0,5806000.0,3091.5999999999995
457000.0,5806000.0,3099.6
458000.0,5806000.0,3099.6
459000.0,5806000.0,3154.0999999999995
460000.0,5806000.0,3174.2000000000003
461000.0,5806000.0,3085.1
462000.0,5806000.0,3083.2
463000.0,5806000.0,3098.1
464000.0,5806000.0,3107.7
465000.0,5806000.0,3100.4
466000.0,5806000.0,3115.2999999999997
467000.0,5806000.0,3133.1
468000.0,5806000.0,3090.2
469000.0,5806000.0,3102.7
470000.0,5806000.0,3107.6
471000.0,5806000.0,3094.0
472000.0,5806000.0,3069.4
473000.0,5806000.0,3106.8
474000.0,5806000.0,3068.0
475000.0,5806000.0,3046.9
476000.0,5806000.0,3085.2
477000.0,5806000.0,3094.0999999999995
478000.0,5806000.0,3109.8
479000.0,5806000.0,3119.4
480000.0,5806000.0,3083.5
493000.0,5806000.0,3213.2999999999997
496000.0,5806000.0,3165.2999999999997
497000.0,5806000.0,3148.4000000000005
498000.0,5806000.0,3124.6
499000.0,5806000.0,3030.4
500000.0,5806000.0,3033.8
501000.0,5806000.0,3061.8
502000.0,5806000.0,3044.6
503000.0,5806000.0,3049.6
504000.0,5806000.0,3212.0
505000.0,5806000.0,3190.2
506000.0,5806000.0,3211.2
507000.0,5806000.0,3184.5
508000.0,5806000.0,3154.2000000000003
404000.0,5805000.0,3025.1
405000.0,5805000.0,3041.1000000000004
406000.0,5805000.0,3055.1
407000.0,5805000.0,3055.6
408000.0,5805000.0,3063.4000000000005
409000.0,5805000.0,3070.0
410000.0,5805000.0,3080.7
411000.0,5805000.0,3087.4
412000.0,5805000.0,3101.3
413000.0,5805000.0,3109.5
414000.0,5805000.0,3121.1000000000004
415000.0,5805000.0,3120.6
457000.0,5805000.0,3092.5
458000.0,5805000.0,3100.7999999999997
459000.0,5805000.0,3158.5
460000.0,5805000.0,3121.5
461000.0,5805000.0,3092.7
462000.0,5805000.0,3102.7999999999997
463000.0,5805000.0,3208.1
464000.0,5805000.0,3137.0
465000.0,5805000.0,3122.4
466000.0,5805000.0,3133.2999999999997
467000.0,5805000.0,3156.3999999999996
468000.0,5805000.0,3121.3999999999996
469000.0,5805000.0,3151.3
470000.0,5805000.0,3127.6
471000.0,5805000.0,3125.2999999999997
472000.0,5805000.0,3073.8999999999996
473000.0,5805000.0,3144.2000000000003
474000.0,5805000.0,3108.6000000000004
475000.0,5805000.0,3058.1
476000.0,5805000.0,3065.2999999999997
477000.0,5805000.0,3098.7
478000.0,5805000.0,3099.5
479000.0,5805000.0,3131.9
480000.0,5805000.0,3129.0999999999995
481000.0,5805000.0,3126.1000000000004
482000.0,5805000.0,3090.9000000000005
485000.0,5805000.0,3151.0
486000.0,5805000.0,3156.1000000000004
487000.0,5805000.0,3167.6
491000.0,5805000.0,3158.2
492000.0,5805000.0,3131.9
493000.0,5805000.0,3168.8
494000.0,5805000.0,3170.7999999999997
495000.0,5805000.0,3159.3
496000.0,5805000.0,3171.1000000000004
497000.0,5805000.0,3142.0
498000.0,5805000.0,3014.6
499000.0,5805000.0,2981.7000000000003
500000.0,5805000.0,3068.5
501000.0,5805000.0,3054.7000000000003
502000.0,5805000.0,3065.0
503000.0,5805000.0,3066.2
504000.0,5805000.0,3202.2000000000003
505000.0,5805000.0,3191.3999999999996
506000.0,5805000.0,3200.4
507000.0,5805000.0,3281.8
404000.0,5804000.0,3030.7999999999997
405000.0,5804000.0,3049.4
406000.0,5804000.0,3048.0
407000.0,5804000.0,3061.3999999999996
408000.0,5804000.0,3074.2000000000003
409000.0,5804000.0,3081.5
410000.0,5804000.0,3090.5
411000.0,5804000.0,3099.5
412000.0,5804000.0,3114.0
413000.0,5804000.0,3112.3
414000.0,5804000.0,3122.9
415000.0,5804000.0,3126.0
416000.0,5804000.0,3136.5
417000.0,5804000.0,3133.8999999999996
459000.0,5804000.0,3132.1
460000.0,5804000.0,3200.2999999999997
461000.0,5804000.0,3114.5
462000.0,5804000.0,3117.4
463000.0,5804000.0,3143.7
464000.0,5804000.0,3141.3
465000.0,5804000.0,3145.5
466000.0,5804000.0,3138.7
467000.0,5804000.0,3126.8
468000.0,5804000.0,3150.2999999999997
469000.0,5804000.0,3125.7
470000.0,5804000.0,3163.8
471000.0,5804000.0,3111.3999999999996
472000.0,5804000.0,3136.5999999999995
473000.0,5804000.0,3199.9
474000.0,5804000.0,3121.7000000000003
475000.0,5804000.0,3103.8
476000.0,5804000.0,3042.7
477000.0,5804000.0,3150.1
478000.0,5804000.0,3134.0999999999995
479000.0,5804000.0,3125.7
480000.0,5804000.0,3147.0
481000.0,5804000.0,3131.2
482000.0,5804000.0,3146.8
483000.0,5804000.0,3126.3
484000.0,5804000.0,3168.0
485000.0,5804000.0,3343.8
486000.0,5804000.0,3220.7
487000.0,5804000.0,3183.0
488000.0,5804000.0,3167.6
489000.0,5804000.0,3167.6
490000.0,5804000.0,3180.1
491000.0,5804000.0,3168.5
492000.0,5804000.0,3128.1
493000.0,5804000.0,3106.5999999999995
494000.0,5804000.0,3108.6000000000004
495000.0,5804000.0,3087.9
496000.0,5804000.0,3114.7000000000003
497000.0,5804000.0,3111.0
498000.0,5804000.0,2987.2000000000003
499000.0,5804000.0,3022.5
500000.0,5804000.0,3067.5
501000.0,5804000.0,3073.2
502000.0,5804000.0,3067.9
503000.0,5804000.0,3113.4000000000005
504000.0,5804000.0,3182.0
505000.0,5804000.0,3115.2999999999997
506000.0,5804000.0,3125.0
400000.0,5803000.0,2988.6000000000004
401000.0,5803000.0,3001.1000000000004
402000.0,5803000.0,3008.1
403000.0,5803000.0,3012.9
404000.0,5803000.0,3033.7
405000.0,5803000.0,3057.1
406000.0,5803000.0,3060.9000000000005
407000.0,5803000.0,3065.2
408000.0,5803000.0,3072.0
409000.0,5803000.0,3085.2
410000.0,5803000.0,3094.6
411000.0,5803000.0,3103.8
412000.0,5803000.0,3112.1
413000.0,5803000.0,3125.2
414000.0,5803000.0,3125.7
415000.0,5803000.0,3140.7
416000.0,5803000.0,3147.5
417000.0,5803000.0,3160.5
418000.0,5803000.0,3161.5
422000.0,5803000.0,3204.6
423000.0,5803000.0,3242.3
424000.0,5803000.0,3178.8
425000.0,5803000.0,3189.7000000000003
460000.0,5803000.0,3102.0
461000.0,5803000.0,3096.7000000000003
462000.0,5803000.0,3131.1000000000004
463000.0,5803000.0,3225.4
464000.0,5803000.0,3139.6
465000.0,5803000.0,3166.5
466000.0,5803000.0,3132.5
467000.0,5803000.0,3143.4000000000005
468000.0,5803000.0,3142.5
469000.0,5803000.0,3161.3
470000.0,5803000.0,3144.0999999999995
471000.0,5803000.0,3103.4000000000005
472000.0,5803000.0,3143.0
473000.0,5803000.0,3136.1000000000004
474000.0,5803000.0,3203.2
475000.0,5803000.0,3218.5
476000.0,5803000.0,3062.6
477000.0,5803000.0,3173.8
478000.0,5803000.0,3145.2
479000.0,5803000.0,3175.7999999999997
480000.0,5803000.0,3152.3
481000.0,5803000.0,3150.4
482000.0,5803000.0,3170.1
483000.0,5803000.0,3144.7000000000003
484000.0,5803000.0,3200.2
485000.0,5803000.0,3200.4
486000.0,5803000.0,3245.7999999999997
487000.0,5803000.0,3220.1
488000.0,5803000.0,3174.0
489000.0,5803000.0,3181.3999999999996
490000.0,5803000.0,3187.7
491000.0,5803000.0,3153.1
492000.0,5803000.0,3182.2000000000003
493000.0,5803000.0,3176.9
494000.0,5803000.0,3187.5
495000.0,5803000.0,3168.7
496000.0,5803000.0,3178.5
497000.0,5803000.0,3131.5999999999995
498000.0,5803000.0,3036.3999999999996
499000.0,5803000.0,3023.7
500000.0,5803000.0,3063.6000000000004
501000.0,5803000.0,3063.8999999999996
502000.0,5803000.0,3095.7
503000.0,5803000.0,3109.9
504000.0,5803000.0,3112.6
505000.0,5803000.0,3131.3
506000.0,5803000.0,3235.1
398000.0,5802000.0,2982.7
399000.0,5802000.0,2987.6
400000.0,5802000.0,3005.7
401000.0,5802000.0,3020.7
402000.0,5802000.0,3021.1000000000004
403000.0,5802000.0,3012.9
404000.0,5802000.0,3028.2999999999997
405000.0,5802000.0,3045.5
406000.0,5802000.0,3080.4
407000.0,5802000.0,3086.2
408000.0,5802000.0,3070.2
409000.0,5802000.0,3089.6
410000.0,5802000.0,3100.4
411000.0,5802000.0,3122.7
412000.0,5802000.0,3129.0
413000.0,5802000.0,3129.0
414000.0,5802000.0,3134.8
415000.0,5802000.0,3148.2999999999997
416000.0,5802000.0,3155.9000000000005
417000.0,5802000.0,3164.0
418000.0,5802000.0,3174.9
419000.0,5802000.0,3176.7000000000003
420000.0,5802000.0,3178.2
421000.0,5802000.0,3188.8
422000.0,5802000.0,3234.9
423000.0,5802000.0,3183.8999999999996
424000.0,5802000.0,3284.5
425000.0,5802000.0,3190.9000000000005
426000.0,5802000.0,3193.2
427000.0,5802000.0,3197.5
462000.0,5802000.0,3102.7
463000.0,5802000.0,3106.7000000000003
464000.0,5802000.0,3125.5
465000.0,5802000.0,3168.0
466000.0,5802000.0,3137.1
467000.0,5802000.0,3125.9000000000005
468000.0,5802000.0,3141.1000000000004
469000.0,5802000.0,3164.8
470000.0,5802000.0,3114.0999999999995
471000.0,5802000.0,3144.8
472000.0,5802000.0,3168.1
473000.0,5802000.0,3163.8
474000.0,5802000.0,3174.0
475000.0,5802000.0,3102.1
476000.0,5802000.0,3130.5
477000.0,5802000.0,3210.6
478000.0,5802000.0,3206.0
479000.0,5802000.0,3194.8
480000.0,5802000.0,3167.9
481000.0,5802000.0,3147.1
482000.0,5802000.0,3164.7000000000003
483000.0,5802000.0,3164.0999999999995
484000.0,5802000.0,3197.6
485000.0,5802000.0,3201.9
486000.0,5802000.0,3208.8999999999996
487000.0,5802000.0,3239.4
488000.0,5802000.0,3200.5
489000.0,5802000.0,3201.2
490000.0,5802000.0,3190.1
491000.0,5802000.0,3160.1
492000.0,5802000.0,3158.8
493000.0,5802000.0,3189.7000000000003
494000.0,5802000.0,3242.7999999999997
495000.0,5802000.0,3202.3
496000.0,5802000.0,3256.9
497000.0,5802000.0,3200.4
498000.0,5802000.0,3060.4
499000.0,5802000.0,3031.0
500000.0,5802000.0,3083.2
501000.0,5802000.0,3084.7000000000003
502000.0,5802000.0,3070.6
503000.0,5802000.0,3100.5
504000.0,5802000.0,3093.1
505000.0,5802000.0,3211.1000000000004
506000.0,5802000.0,3232.0
397000.0,5801000.0,2986.5999999999995
398000.0,5801000.0,2989.5
399000.0,5801000.0,3013.2
400000.0,5801000.0,3020.5
401000.0,5801000.0,3029.4
402000.0,5801000.0,3032.2000000000003
403000.0,5801000.0,3028.2999999999997
404000.0,5801000.0,3051.5
405000.0,5801000.0,3060.4
406000.0,5801000.0,3082.1
407000.0,5801000.0,3072.4
408000.0,5801000.0,3081.1000000000004
409000.0,5801000.0,3099.2000000000003
410000.0,5801000.0,3130.7999999999997
411000.0,5801000.0,3149.3
412000.0,5801000.0,3199.8
413000.0,5801000.0,3157.6
414000.0,5801000.0,3163.2
415000.0,5801000.0,3168.0
416000.0,5801000.0,3154.2000000000003
417000.0,5801000.0,3159.0999999999995
418000.0,5801000.0,3161.1000000000004
419000.0,5801000.0,3165.5
420000.0,5801000.0,3171.5999999999995
421000.0,5801000.0,3174.8
422000.0,5801000.0,3177.1
423000.0,5801000.0,3248.0
424000.0,5801000.0,3199.7000000000003
425000.0,5801000.0,3209.9
426000.0,5801000.0,3201.8
427000.0,5801000.0,3191.9
428000.0,5801000.0,3156.2
463000.0,5801000.0,3137.5
464000.0,5801000.0,3113.7
465000.0,5801000.0,3116.5
466000.0,5801000.0,3156.8
467000.0,5801000.0,3146.0
468000.0,5801000.0,3146.3999999999996
469000.0,5801000.0,3139.7000000000003
470000.0,5801000.0,3117.1
471000.0,5801000.0,3199.5
472000.0,5801000.0,3321.8
473000.0,5801000.0,3291.3
474000.0,5801000.0,3285.7999999999997
475000.0,5801000.0,3245.1
476000.0,5801000.0,3163.2999999999997
477000.0,5801000.0,3160.9000000000005
478000.0,5801000.0,3156.5
479000.0,5801000.0,3160.7
480000.0,5801000.0,3156.1000000000004
481000.0,5801000.0,3159.6
482000.0,5801000.0,3157.6
483000.0,5801000.0,3185.1
484000.0,5801000.0,3177.2000000000003
485000.0,5801000.0,3203.8
486000.0,5801000.0,3227.2000000000003
487000.0,5801000.0,3230.7
488000.0,5801000.0,3222.4
489000.0,5801000.0,3197.9
490000.0,5801000.0,3199.8
491000.0,5801000.0,3188.2
492000.0,5801000.0,3189.6
493000.0,5801000.0,3238.2999999999997
494000.0,5801000.0,3249.7000000000003
495000.0,5801000.0,3250.2999999999997
496000.0,5801000.0,3257.7
497000.0,5801000.0,3159.9
498000.0,5801000.0,3028.8999999999996
499000.0,5801000.0,3015.6
500000.0,5801000.0,3034.7000000000003
501000.0,5801000.0,3096.3999999999996
502000.0,5801000.0,3077.1
503000.0,5801000.0,3120.4
504000.0,5801000.0,3093.8
505000.0,5801000.0,3175.7
395000.0,5800000.0,2990.0
396000.0,5800000.0,2989.6
397000.0,5800000.0,2988.8
398000.0,5800000.0,3002.5
399000.0,5800000.0,3025.2999999999997
400000.0,5800000.0,3031.3
401000.0,5800000.0,3038.5
402000.0,5800000.0,3038.0
403000.0,5800000.0,3043.1
404000.0,5800000.0,3061.3999999999996
405000.0,5800000.0,3086.5999999999995
406000.0,5800000.0,3112.7
407000.0,5800000.0,3121.3999999999996
408000.0,5800000.0,3135.7999999999997
409000.0,5800000.0,3346.2
410000.0,5800000.0,3235.7999999999997
411000.0,5800000.0,3266.5
412000.0,5800000.0,3255.2999999999997
413000.0,5800000.0,3207.3
414000.0,5800000.0,3234.7000000000003
415000.0,5800000.0,3208.6000000000004
416000.0,5800000.0,3168.2999999999997
417000.0,5800000.0,3190.0
418000.0,5800000.0,3174.7000000000003
419000.0,5800000.0,3200.5
420000.0,5800000.0,3240.2
421000.0,5800000.0,3172.7
422000.0,5800000.0,3198.4000000000005
423000.0,5800000.0,3388.1
424000.0,5800000.0,3323.7
425000.0,5800000.0,3330.9000000000005
426000.0,5800000.0,3222.5
427000.0,5800000.0,3203.7
428000.0,5800000.0,3177.2000000000003
463000.0,5800000.0,3137.0
464000.0,5800000.0,3145.4
465000.0,5800000.0,3158.6000000000004
466000.0,5800000.0,3127.9
467000.0,5800000.0,3126.5999999999995
468000.0,5800000.0,3134.0999999999995
469000.0,5800000.0,3119.6
470000.0,5800000.0,3126.9
471000.0,5800000.0,3138.0
472000.0,5800000.0,3145.7
473000.0,5800000.0,3152.5
474000.0,5800000.0,3189.7000000000003
475000.0,5800000.0,3250.7
476000.0,5800000.0,3335.2
477000.0,5800000.0,3176.5999999999995
478000.0,5800000.0,3175.9000000000005
479000.0,5800000.0,3144.9
480000.0,5800000.0,3182.5
481000.0,5800000.0,3205.7
482000.0,5800000.0,3242.3
483000.0,5800000.0,3214.7000000000003
484000.0,5800000.0,3178.8999999999996
485000.0,5800000.0,3235.0
486000.0,5800000.0,3232.1
487000.0,5800000.0,3208.0
488000.0,5800000.0,3202.7
489000.0,5800000.0,3170.7
490000.0,5800000.0,3188.8
491000.0,5800000.0,3184.7000000000003
492000.0,5800000.0,3182.7
493000.0,5800000.0,3239.7000000000003
494000.0,5800000.0,3243.5
495000.0,5800000.0,3215.7
496000.0,5800000.0,3186.5
497000.0,5800000.0,3021.2
498000.0,5800000.0,3072.0
499000.0,5800000.0,3075.4
500000.0,5800000.0,3090.9000000000005
501000.0,5800000.0,3083.8
502000.0,5800000.0,3165.7999999999997
503000.0,5800000.0,3134.5
504000.0,5800000.0,3102.6
505000.0,5800000.0,3109.4
394000.0,5799000.0,3016.0
395000.0,5799000.0,3000.2999999999997
396000.0,5799000.0,2998.0
397000.0,5799000.0,3003.1
398000.0,5799000.0,3015.9000000000005
399000.0,5799000.0,3031.8
400000.0,5799000.0,3030.6
401000.0,5799000.0,3040.6
402000.0,5799000.0,3045.9000000000005
403000.0,5799000.0,3062.7
404000.0,5799000.0,3066.7000000000003
405000.0,5799000.0,3091.2
406000.0,5799000.0,3120.1
407000.0,5799000.0,3163.5
408000.0,5799000.0,3232.0
409000.0,5799000.0,3703.2
410000.0,5799000.0,3698.4000000000005
411000.0,5799000.0,3589.3
412000.0,5799000.0,3730.1
413000.0,5799000.0,3280.1
414000.0,5799000.0,3250.2999999999997
415000.0,5799000.0,3265.0
416000.0,5799000.0,3192.0
417000.0,5799000.0,3203.2
418000.0,5799000.0,3201.7000000000003
419000.0,5799000.0,3191.9
420000.0,5799000.0,3293.5
421000.0,5799000.0,3200.2999999999997
422000.0,5799000.0,3192.5
423000.0,5799000.0,3184.6
424000.0,5799000.0,3192.7999999999997
425000.0,5799000.0,3195.5
426000.0,5799000.0,3234.2000000000003
427000.0,5799000.0,3269.7000000000003
428000.0,5799000.0,3211.5999999999995
463000.0,5799000.0,3172.5
464000.0,5799000.0,3149.3
465000.0,5799000.0,3178.7
466000.0,5799000.0,3143.0
467000.0,5799000.0,3148.7
468000.0,5799000.0,3162.4
469000.0,5799000.0,3150.7
470000.0,5799000.0,3138.2999999999997
471000.0,5799000.0,3158.4000000000005
472000.0,5799000.0,3142.0
473000.0,5799000.0,3145.2999999999997
474000.0,5799000.0,3197.6
475000.0,5799000.0,3247.6
476000.0,5799000.0,3243.6000000000004
477000.0,5799000.0,3192.6
478000.0,5799000.0,3194.4
479000.0,5799000.0,3207.0
480000.0,5799000.0,3156.8
481000.0,5799000.0,3180.7999999999997
482000.0,5799000.0,3203.0
483000.0,5799000.0,3160.7
484000.0,5799000.0,3180.1
485000.0,5799000.0,3194.6
486000.0,5799000.0,3218.6000000000004
487000.0,5799000.0,3188.2999999999997
488000.0,5799000.0,3182.1
489000.0,5799000.0,3204.4
490000.0,5799000.0,3185.0
491000.0,5799000.0,3225.2999999999997
492000.0,5799000.0,3213.2
493000.0,5799000.0,3191.8
494000.0,5799000.0,3244.2000000000003
495000.0,5799000.0,3218.7
496000.0,5799000.0,3093.2999999999997
497000.0,5799000.0,3060.6
498000.0,5799000.0,3088.0
499000.0,5799000.0,3090.5
500000.0,5799000.0,3107.9
501000.0,5799000.0,3227.2000000000003
503000.0,5799000.0,3184.9
504000.0,5799000.0,3123.6000000000004
393000.0,5798000.0,3031.3999999999996
394000.0,5798000.0,3020.7
395000.0,5798000.0,3007.0
396000.0,5798000.0,3004.9
397000.0,5798000.0,3006.8
398000.0,5798000.0,3021.7000000000003
399000.0,5798000.0,3033.7
400000.0,5798000.0,3037.6
401000.0,5798000.0,3040.6
402000.0,5798000.0,3049.5
403000.0,5798000.0,3061.3
404000.0,5798000.0,3083.8999999999996
405000.0,5798000.0,3111.5
406000.0,5798000.0,3122.0
407000.0,5798000.0,3352.0
408000.0,5798000.0,3774.3
409000.0,5798000.0,3826.2
410000.0,5798000.0,3880.5
411000.0,5798000.0,4069.7000000000003
412000.0,5798000.0,3624.4
413000.0,5798000.0,3384.8
414000.0,5798000.0,3300.9000000000005
415000.0,5798000.0,3305.4
416000.0,5798000.0,3243.5
417000.0,5798000.0,3219.9
418000.0,5798000.0,3211.9
419000.0,5798000.0,3206.5999999999995
420000.0,5798000.0,3297.7999999999997
421000.0,5798000.0,3322.0
422000.0,5798000.0,3242.5
423000.0,5798000.0,3253.4000000000005
424000.0,5798000.0,3246.0
425000.0,5798000.0,3198.2999999999997
426000.0,5798000.0,3388.5
427000.0,5798000.0,3251.8
428000.0,5798000.0,3270.5
463000.0,5798000.0,3176.5
464000.0,5798000.0,3156.1000000000004
465000.0,5798000.0,3160.4
466000.0,5798000.0,3153.6000000000004
467000.0,5798000.0,3150.9000000000005
468000.0,5798000.0,3167.0
469000.0,5798000.0,3158.2999999999997
470000.0,5798000.0,3164.6
471000.0,5798000.0,3152.6
472000.0,5798000.0,3154.0
473000.0,5798000.0,3162.3
474000.0,5798000.0,3163.2999999999997
475000.0,5798000.0,3158.7
476000.0,5798000.0,3162.0
477000.0,5798000.0,3162.3
478000.0,5798000.0,3149.3
479000.0,5798000.0,3160.7
480000.0,5798000.0,3166.7000000000003
481000.0,5798000.0,3154.5
482000.0,5798000.0,3181.3999999999996
483000.0,5798000.0,3248.5
484000.0,5798000.0,3162.5
485000.0,5798000.0,3159.0999999999995
486000.0,5798000.0,3231.7000000000003
487000.0,5798000.0,3224.8
488000.0,5798000.0,3218.1
489000.0,5798000.0,3234.0
490000.0,5798000.0,3211.9
491000.0,5798000.0,3215.4
492000.0,5798000.0,3240.5
493000.0,5798000.0,3232.7999999999997
494000.0,5798000.0,3244.4
495000.0,5798000.0,3250.5
496000.0,5798000.0,3028.4000000000005
497000.0,5798000.0,3070.2999999999997
498000.0,5798000.0,3055.2
499000.0,5798000.0,3118.2999999999997
500000.0,5798000.0,3107.2000000000003
501000.0,5798000.0,3213.0
393000.0,5797000.0,3024.5
394000.0,5797000.0,3031.2
395000.0,5797000.0,3013.0
396000.0,5797000.0,3008.7
397000.0,5797000.0,3009.4
398000.0,5797000.0,3007.5
399000.0,5797000.0,3034.8
400000.0,5797000.0,3043.7
401000.0,5797000.0,3053.1
402000.0,5797000.0,3064.3
403000.0,5797000.0,3066.5
404000.0,5797000.0,3079.2000000000003
405000.0,5797000.0,3127.6
406000.0,5797000.0,3146.7000000000003
407000.0,5797000.0,3226.0
408000.0,5797000.0,3693.2
409000.0,5797000.0,3899.6
410000.0,5797000.0,3948.2
411000.0,5797000.0,3943.6000000000004
412000.0,5797000.0,3435.7
413000.0,5797000.0,3706.0
414000.0,5797000.0,3851.0
415000.0,5797000.0,3836.1000000000004
416000.0,5797000.0,3445.2999999999997
417000.0,5797000.0,3328.2
418000.0,5797000.0,3409.4
419000.0,5797000.0,3238.0
420000.0,5797000.0,3280.6
421000.0,5797000.0,3256.8
422000.0,5797000.0,3274.0
423000.0,5797000.0,3352.2000000000003
424000.0,5797000.0,3265.6
425000.0,5797000.0,3238.8
426000.0,5797000.0,3310.2
427000.0,5797000.0,3391.5
428000.0,5797000.0,3256.3
429000.0,5797000.0,3329.5
464000.0,5797000.0,3170.5
465000.0,5797000.0,3165.5
466000.0,5797000.0,3164.0999999999995
467000.0,5797000.0,3162.7
468000.0,5797000.0,3164.0999999999995
469000.0,5797000.0,3169.5
470000.0,5797000.0,3168.0
471000.0,5797000.0,3178.7
472000.0,5797000.0,3174.0999999999995
473000.0,5797000.0,3185.2999999999997
474000.0,5797000.0,3195.2
475000.0,5797000.0,3179.8
476000.0,5797000.0,3172.7999999999997
477000.0,5797000.0,3176.7000000000003
478000.0,5797000.0,3149.3
479000.0,5797000.0,3157.6
480000.0,5797000.0,3136.1000000000004
481000.0,5797000.0,3128.8
482000.0,5797000.0,3130.2
483000.0,5797000.0,3153.1
484000.0,5797000.0,3144.5
485000.0,5797000.0,3176.3
486000.0,5797000.0,3217.1
487000.0,5797000.0,3244.3
488000.0,5797000.0,3235.9000000000005
489000.0,5797000.0,3242.7
490000.0,5797000.0,3247.5
491000.0,5797000.0,3220.9000000000005
492000.0,5797000.0,3256.9
493000.0,5797000.0,3231.9
494000.0,5797000.0,3266.2
495000.0,5797000.0,3038.2999999999997
496000.0,5797000.0,3047.7999999999997
497000.0,5797000.0,3075.4
498000.0,5797000.0,3095.1
499000.0,5797000.0,3093.5
390000.0,5796000.0,3039.0
391000.0,5796000.0,3023.4000000000005
392000.0,5796000.0,2937.5
393000.0,5796000.0,2917.3
394000.0,5796000.0,3038.7
395000.0,5796000.0,3016.8
396000.0,5796000.0,3034.0
397000.0,5796000.0,3060.4
398000.0,5796000.0,3020.5
399000.0,5796000.0,3054.3
400000.0,5796000.0,3053.8999999999996
401000.0,5796000.0,3058.2999999999997
402000.0,5796000.0,3069.9
403000.0,5796000.0,3079.2000000000003
404000.0,5796000.0,3097.3
405000.0,5796000.0,3106.5999999999995
406000.0,5796000.0,3135.2
407000.0,5796000.0,3181.3999999999996
408000.0,5796000.0,3316.9
409000.0,5796000.0,3678.7
410000.0,5796000.0,3915.6
411000.0,5796000.0,3966.0
412000.0,5796000.0,3495.4
413000.0,5796000.0,3682.6
414000.0,5796000.0,4031.9
415000.0,5796000.0,3737.2000000000003
416000.0,5796000.0,3834.0999999999995
417000.0,5796000.0,3872.4
418000.0,5796000.0,3473.1
419000.0,5796000.0,3265.2999999999997
420000.0,5796000.0,3295.4
421000.0,5796000.0,3440.9000000000005
422000.0,5796000.0,3382.6
423000.0,5796000.0,3517.0
424000.0,5796000.0,3428.2999999999997
425000.0,5796000.0,3343.2999999999997
426000.0,5796000.0,3242.1
427000.0,5796000.0,3355.0
428000.0,5796000.0,3305.7999999999997
429000.0,5796000.0,3256.1000000000004
430000.0,5796000.0,3358.8999999999996
464000.0,5796000.0,3193.6000000000004
465000.0,5796000.0,3201.8
466000.0,5796000.0,3184.4
467000.0,5796000.0,3169.5
468000.0,5796000.0,3160.1
469000.0,5796000.0,3194.0999999999995
470000.0,5796000.0,3181.9
471000.0,5796000.0,3186.3999999999996
472000.0,5796000.0,3212.2000000000003
473000.0,5796000.0,3232.6
474000.0,5796000.0,3266.2
475000.0,5796000.0,3267.5
476000.0,5796000.0,3277.1
477000.0,5796000.0,3206.5
478000.0,5796000.0,3173.1
479000.0,5796000.0,3153.0
480000.0,5796000.0,3163.8
481000.0,5796000.0,3157.9
482000.0,5796000.0,3123.5
483000.0,5796000.0,3115.0
484000.0,5796000.0,3116.1000000000004
485000.0,5796000.0,3114.0999999999995
486000.0,5796000.0,3114.8
487000.0,5796000.0,3160.1
488000.0,5796000.0,3223.0
489000.0,5796000.0,3212.2000000000003
490000.0,5796000.0,3238.8
491000.0,5796000.0,3247.5
492000.0,5796000.0,3251.5999999999995
493000.0,5796000.0,3242.4
494000.0,5796000.0,3225.6
495000.0,5796000.0,3063.2
496000.0,5796000.0,3100.7
497000.0,5796000.0,3089.3
498000.0,5796000.0,3105.2999999999997
499000.0,5796000.0,3119.4
389000.0,5795000.0,3032.9
390000.0,5795000.0,3024.0
391000.0,5795000.0,3008.8999999999996
392000.0,5795000.0,3018.8
393000.0,5795000.0,2972.7
394000.0,5795000.0,3041.9
395000.0,5795000.0,3057.6
396000.0,5795000.0,3038.1
397000.0,5795000.0,3033.8999999999996
398000.0,5795000.0,3047.7
399000.0,5795000.0,3043.5
400000.0,5795000.0,3061.2
401000.0,5795000.0,3069.5
402000.0,5795000.0,3080.1
403000.0,5795000.0,3091.9
404000.0,5795000.0,3116.3999999999996
405000.0,5795000.0,3135.7
406000.0,5795000.0,3140.9000000000005
407000.0,5795000.0,3223.2999999999997
408000.0,5795000.0,3199.0999999999995
409000.0,5795000.0,3278.6000000000004
410000.0,5795000.0,3472.7
411000.0,5795000.0,3889.5
412000.0,5795000.0,3683.2999999999997
413000.0,5795000.0,4088.5
414000.0,5795000.0,3921.3
415000.0,5795000.0,4137.1
416000.0,5795000.0,4134.099999999999
417000.0,5795000.0,3969.0999999999995
418000.0,5795000.0,3801.7000000000003
419000.0,5795000.0,3460.9000000000005
420000.0,5795000.0,3338.2
421000.0,5795000.0,3464.4
422000.0,5795000.0,3516.2
423000.0,5795000.0,3539.6
424000.0,5795000.0,3331.5999999999995
425000.0,5795000.0,3265.9000000000005
426000.0,5795000.0,3262.7999999999997
427000.0,5795000.0,3254.3
464000.0,5795000.0,3462.3
465000.0,5795000.0,3307.7
466000.0,5795000.0,3229.0999999999995
467000.0,5795000.0,3195.9000000000005
468000.0,5795000.0,3189.0
469000.0,5795000.0,3202.9
470000.0,5795000.0,3212.0
471000.0,5795000.0,3255.0
472000.0,5795000.0,3282.2000000000003
473000.0,5795000.0,3359.0
474000.0,5795000.0,3489.9
475000.0,5795000.0,3810.5
476000.0,5795000.0,3659.2000000000003
477000.0,5795000.0,4141.4
478000.0,5795000.0,3665.7999999999997
479000.0,5795000.0,3349.3
480000.0,5795000.0,3269.0
481000.0,5795000.0,3281.7000000000003
482000.0,5795000.0,3218.6000000000004
483000.0,5795000.0,3211.8
484000.0,5795000.0,3135.5
485000.0,5795000.0,3104.0999999999995
486000.0,5795000.0,3097.5
487000.0,5795000.0,3100.5
488000.0,5795000.0,3108.1
489000.0,5795000.0,3184.3
490000.0,5795000.0,3209.0999999999995
491000.0,5795000.0,3220.0
492000.0,5795000.0,3232.9
493000.0,5795000.0,3224.9
494000.0,5795000.0,3236.5999999999995
495000.0,5795000.0,3039.3
496000.0,5795000.0,3093.6000000000004
497000.0,5795000.0,3071.2
498000.0,5795000.0,3129.6
499000.0,5795000.0,3123.0
388000.0,5794000.0,3043.1
389000.0,5794000.0,3067.6
390000.0,5794000.0,3054.3
391000.0,5794000.0,3024.5
392000.0,5794000.0,3034.4
393000.0,5794000.0,3029.9
394000.0,5794000.0,3060.0
395000.0,5794000.0,3037.5
396000.0,5794000.0,3049.8
397000.0,5794000.0,3053.5
398000.0,5794000.0,3041.5
399000.0,5794000.0,3052.5
400000.0,5794000.0,3064.9
401000.0,5794000.0,3067.7
402000.0,5794000.0,3063.2999999999997
403000.0,5794000.0,3127.6
404000.0,5794000.0,3136.8
405000.0,5794000.0,3152.7999999999997
406000.0,5794000.0,3139.0999999999995
407000.0,5794000.0,3155.0
408000.0,5794000.0,3171.2
409000.0,5794000.0,3191.5
410000.0,5794000.0,3219.7000000000003
411000.0,5794000.0,3333.8999999999996
412000.0,5794000.0,3884.5
413000.0,5794000.0,4129.0
414000.0,5794000.0,4246.1
415000.0,5794000.0,4306.599999999999
416000.0,5794000.0,4256.4
417000.0,5794000.0,4184.6
418000.0,5794000.0,4021.0
419000.0,5794000.0,3816.5
420000.0,5794000.0,3425.1
421000.0,5794000.0,3713.1
422000.0,5794000.0,3495.2
423000.0,5794000.0,3530.1
424000.0,5794000.0,3323.8
425000.0,5794000.0,3266.9
426000.0,5794000.0,3252.5
427000.0,5794000.0,3285.1
464000.0,5794000.0,3786.2
465000.0,5794000.0,3520.2
466000.0,5794000.0,3719.0999999999995
467000.0,5794000.0,3286.1000000000004
468000.0,5794000.0,3237.3
469000.0,5794000.0,3218.8999999999996
470000.0,5794000.0,3285.5
471000.0,5794000.0,3387.5
472000.0,5794000.0,3460.1
473000.0,5794000.0,3670.5
474000.0,5794000.0,3884.2000000000003
475000.0,5794000.0,4946.4
476000.0,5794000.0,5114.099999999999
477000.0,5794000.0,5011.1
478000.0,5794000.0,5226.0
479000.0,5794000.0,4496.3
480000.0,5794000.0,3992.0
481000.0,5794000.0,3505.6
482000.0,5794000.0,3324.7000000000003
483000.0,5794000.0,3173.6000000000004
484000.0,5794000.0,3191.1000000000004
485000.0,5794000.0,3203.6000000000004
486000.0,5794000.0,3103.8
487000.0,5794000.0,3095.9000000000005
488000.0,5794000.0,3095.0
489000.0,5794000.0,3099.5
490000.0,5794000.0,3102.0
491000.0,5794000.0,3202.5
492000.0,5794000.0,3227.0
493000.0,5794000.0,3199.0999999999995
494000.0,5794000.0,3230.2999999999997
495000.0,5794000.0,3073.6000000000004
496000.0,5794000.0,3105.5
497000.0,5794000.0,3075.6
498000.0,5794000.0,3135.2
499000.0,5794000.0,3104.4
385000.0,5793000.0,3071.5
386000.0,5793000.0,3042.7999999999997
387000.0,5793000.0,3059.3
388000.0,5793000.0,3058.1
389000.0,5793000.0,3061.8
390000.0,5793000.0,3049.0
391000.0,5793000.0,3082.9
392000.0,5793000.0,3274.8
393000.0,5793000.0,3055.6
394000.0,5793000.0,2991.2
395000.0,5793000.0,2988.4000000000005
396000.0,5793000.0,3020.5
397000.0,5793000.0,3040.6
398000.0,5793000.0,3041.5
399000.0,5793000.0,3040.5
400000.0,5793000.0,3122.6
401000.0,5793000.0,3084.7000000000003
402000.0,5793000.0,3064.6
403000.0,5793000.0,3076.9
404000.0,5793000.0,3115.6
405000.0,5793000.0,3367.6
406000.0,5793000.0,3452.3
407000.0,5793000.0,3329.8
408000.0,5793000.0,3194.9
409000.0,5793000.0,3212.9
410000.0,5793000.0,3207.0
411000.0,5793000.0,3229.8
412000.0,5793000.0,3346.8
413000.0,5793000.0,3860.7
414000.0,5793000.0,4252.1
415000.0,5793000.0,4262.3
416000.0,5793000.0,4290.5
417000.0,5793000.0,4259.099999999999
418000.0,5793000.0,4289.0
419000.0,5793000.0,4256.599999999999
420000.0,5793000.0,3722.3
421000.0,5793000.0,3672.5
422000.0,5793000.0,3546.3
423000.0,5793000.0,3591.3999999999996
424000.0,5793000.0,3337.5
425000.0,5793000.0,3257.6
426000.0,5793000.0,3272.0
427000.0,5793000.0,3284.2000000000003
464000.0,5793000.0,4372.799999999999
465000.0,5793000.0,4142.4
466000.0,5793000.0,4052.7
467000.0,5793000.0,3791.9
468000.0,5793000.0,3392.7
469000.0,5793000.0,3366.9
470000.0,5793000.0,3479.6
471000.0,5793000.0,3599.0
472000.0,5793000.0,3977.8999999999996
473000.0,5793000.0,4427.0
474000.0,5793000.0,5009.5
475000.0,5793000.0,4821.7
476000.0,5793000.0,4287.5
477000.0,5793000.0,3976.3999999999996
478000.0,5793000.0,4001.5999999999995
479000.0,5793000.0,4176.1
480000.0,5793000.0,4332.1
481000.0,5793000.0,4395.8
482000.0,5793000.0,3848.1
483000.0,5793000.0,3400.1
484000.0,5793000.0,3293.8
485000.0,5793000.0,3252.6
486000.0,5793000.0,3219.6
487000.0,5793000.0,3101.3999999999996
488000.0,5793000.0,3094.8
489000.0,5793000.0,3093.2
490000.0,5793000.0,3102.0
491000.0,5793000.0,3111.3999999999996
492000.0,5793000.0,3125.0
493000.0,5793000.0,3212.6
494000.0,5793000.0,3211.5
495000.0,5793000.0,3065.2
496000.0,5793000.0,3058.7
497000.0,5793000.0,3135.2
498000.0,5793000.0,3124.2000000000003
499000.0,5793000.0,3119.6
373000.0,5792000.0,3029.4
374000.0,5792000.0,3063.5
375000.0,5792000.0,3094.0
376000.0,5792000.0,3084.3
377000.0,5792000.0,3059.2000000000003
385000.0,5792000.0,3069.6
386000.0,5792000.0,3061.7000000000003
387000.0,5792000.0,3076.8
388000.0,5792000.0,3115.7999999999997
389000.0,5792000.0,3156.3
390000.0,5792000.0,3178.5
391000.0,5792000.0,3193.2
392000.0,5792000.0,3132.1
393000.0,5792000.0,3080.7999999999997
394000.0,5792000.0,3050.2999999999997
395000.0,5792000.0,3016.7000000000003
396000.0,5792000.0,3025.4
397000.0,5792000.0,3048.8999999999996
398000.0,5792000.0,3049.4
399000.0,5792000.0,3053.7
400000.0,5792000.0,3055.0
401000.0,5792000.0,3051.1000000000004
402000.0,5792000.0,3058.4000000000005
403000.0,5792000.0,3055.4
404000.0,5792000.0,3080.2
405000.0,5792000.0,3129.0999999999995
406000.0,5792000.0,3219.4
407000.0,5792000.0,3682.3
408000.0,5792000.0,3549.7000000000003
409000.0,5792000.0,3343.7
410000.0,5792000.0,3270.6
411000.0,5792000.0,3231.7000000000003
412000.0,5792000.0,3268.8
413000.0,5792000.0,3391.5999999999995
414000.0,5792000.0,3469.0
415000.0,5792000.0,3456.7000000000003
416000.0,5792000.0,3588.8999999999996
417000.0,5792000.0,3666.7000000000003
418000.0,5792000.0,3830.4
419000.0,5792000.0,4229.4
420000.0,5792000.0,3908.2
421000.0,5792000.0,3753.8999999999996
422000.0,5792000.0,3554.6
423000.0,5792000.0,3700.7
424000.0,5792000.0,3413.8
425000.0,5792000.0,3472.7999999999997
426000.0,5792000.0,3395.7
427000.0,5792000.0,3389.2000000000003
428000.0,5792000.0,3357.6
464000.0,5792000.0,3900.6
465000.0,5792000.0,3604.6
466000.0,5792000.0,3551.1000000000004
467000.0,5792000.0,3680.1
468000.0,5792000.0,3383.1
469000.0,5792000.0,3868.6000000000004
470000.0,5792000.0,4117.799999999999
471000.0,5792000.0,4342.3
472000.0,5792000.0,4912.6
473000.0,5792000.0,5120.8
474000.0,5792000.0,4833.5
475000.0,5792000.0,4174.700000000001
476000.0,5792000.0,3904.9
477000.0,5792000.0,3724.8
478000.0,5792000.0,3850.2999999999997
479000.0,5792000.0,3754.6
480000.0,5792000.0,3955.2
481000.0,5792000.0,3978.8999999999996
482000.0,5792000.0,4365.0
483000.0,5792000.0,4386.5
484000.0,5792000.0,3644.3
485000.0,5792000.0,3356.5
486000.0,5792000.0,3309.7000000000003
487000.0,5792000.0,3226.3999999999996
488000.0,5792000.0,3192.5
489000.0,5792000.0,3119.0999999999995
490000.0,5792000.0,3106.5
491000.0,5792000.0,3109.0
492000.0,5792000.0,3123.8
493000.0,5792000.0,3134.2000000000003
494000.0,5792000.0,3090.7999999999997
495000.0,5792000.0,3076.3999999999996
496000.0,5792000.0,3063.2
497000.0,5792000.0,3086.2
372000.0,5791000.0,3033.5
373000.0,5791000.0,3071.2
374000.0,5791000.0,3095.7999999999997
375000.0,5791000.0,3104.6
376000.0,5791000.0,3149.2000000000003
377000.0,5791000.0,3139.2000000000003
378000.0,5791000.0,3066.8
379000.0,5791000.0,3046.9
380000.0,5791000.0,3034.3
381000.0,5791000.0,3037.5
382000.0,5791000.0,3043.8
383000.0,5791000.0,3054.0999999999995
384000.0,5791000.0,3064.2000000000003
385000.0,5791000.0,3069.2000000000003
386000.0,5791000.0,3126.3
387000.0,5791000.0,3212.7999999999997
388000.0,5791000.0,3414.2000000000003
389000.0,5791000.0,3418.1
390000.0,5791000.0,3218.8999999999996
391000.0,5791000.0,3331.3999999999996
392000.0,5791000.0,3283.4000000000005
393000.0,5791000.0,3211.7000000000003
394000.0,5791000.0,3223.0
395000.0,5791000.0,2969.6
396000.0,5791000.0,3016.3
397000.0,5791000.0,3044.4
398000.0,5791000.0,3066.5
399000.0,5791000.0,3060.6
400000.0,5791000.0,3067.7999999999997
401000.0,5791000.0,3059.5
402000.0,5791000.0,3062.2000000000003
403000.0,5791000.0,3062.7
404000.0,5791000.0,3060.7999999999997
405000.0,5791000.0,3061.3
406000.0,5791000.0,3158.4000000000005
407000.0,5791000.0,3289.4
408000.0,5791000.0,3575.4
409000.0,5791000.0,3961.5999999999995
410000.0,5791000.0,3555.9000000000005
411000.0,5791000.0,3347.6
412000.0,5791000.0,3323.4000000000005
413000.0,5791000.0,3289.3
414000.0,5791000.0,3287.5
415000.0,5791000.0,3334.2000000000003
416000.0,5791000.0,3486.9
417000.0,5791000.0,3583.1
418000.0,5791000.0,3538.8
419000.0,5791000.0,3641.9
420000.0,5791000.0,3531.5999999999995
421000.0,5791000.0,3359.8
422000.0,5791000.0,3321.3999999999996
423000.0,5791000.0,3323.7
424000.0,5791000.0,3322.2000000000003
425000.0,5791000.0,3411.3
426000.0,5791000.0,3315.9000000000005
464000.0,5791000.0,4619.3
465000.0,5791000.0,4144.2
466000.0,5791000.0,3930.0
467000.0,5791000.0,3454.0
468000.0,5791000.0,3798.4000000000005
469000.0,5791000.0,3970.6
470000.0,5791000.0,4909.3
471000.0,5791000.0,5138.3
472000.0,5791000.0,4932.1
473000.0,5791000.0,4354.6
474000.0,5791000.0,4002.7
475000.0,5791000.0,3939.4
476000.0,5791000.0,3988.0
477000.0,5791000.0,3549.5
478000.0,5791000.0,3904.9
479000.0,5791000.0,3485.2999999999997
480000.0,5791000.0,3684.9
481000.0,5791000.0,3728.1
482000.0,5791000.0,4117.1
483000.0,5791000.0,3899.6
484000.0,5791000.0,4951.3
485000.0,5791000.0,4196.9
486000.0,5791000.0,3689.9
487000.0,5791000.0,3458.0
488000.0,5791000.0,3338.8
489000.0,5791000.0,3262.7999999999997
490000.0,5791000.0,3207.2000000000003
491000.0,5791000.0,3222.3
492000.0,5791000.0,3357.0
493000.0,5791000.0,3150.7
494000.0,5791000.0,3075.2
495000.0,5791000.0,3036.5
496000.0,5791000.0,3074.0999999999995
497000.0,5791000.0,3137.4
498000.0,5791000.0,3134.9
371000.0,5790000.0,3043.8999999999996
372000.0,5790000.0,3069.7000000000003
373000.0,5790000.0,3063.8999999999996
374000.0,5790000.0,3092.0
375000.0,5790000.0,3112.9
376000.0,5790000.0,3121.3
377000.0,5790000.0,3087.7
378000.0,5790000.0,3082.6
379000.0,5790000.0,3061.3999999999996
380000.0,5790000.0,3056.5999999999995
381000.0,5790000.0,3050.7
382000.0,5790000.0,3054.3
383000.0,5790000.0,3063.2999999999997
384000.0,5790000.0,3043.0
385000.0,5790000.0,3117.6
386000.0,5790000.0,3154.9
387000.0,5790000.0,3204.0999999999995
388000.0,5790000.0,3298.6000000000004
389000.0,5790000.0,3308.6000000000004
390000.0,5790000.0,3193.2
391000.0,5790000.0,3102.3
392000.0,5790000.0,3147.9
393000.0,5790000.0,3222.6
394000.0,5790000.0,3153.6000000000004
395000.0,5790000.0,3020.7
396000.0,5790000.0,2960.5
397000.0,5790000.0,2973.2999999999997
398000.0,5790000.0,2969.9
399000.0,5790000.0,3056.3999999999996
400000.0,5790000.0,3065.2999999999997
401000.0,5790000.0,3072.4
402000.0,5790000.0,3080.9000000000005
403000.0,5790000.0,3072.3
404000.0,5790000.0,3059.8
405000.0,5790000.0,3070.7
406000.0,5790000.0,3126.2
407000.0,5790000.0,3118.1
408000.0,5790000.0,3201.8
409000.0,5790000.0,3408.8
410000.0,5790000.0,3693.2999999999997
411000.0,5790000.0,3817.3
412000.0,5790000.0,3471.3
413000.0,5790000.0,3396.3999999999996
414000.0,5790000.0,3356.3999999999996
415000.0,5790000.0,3312.1
416000.0,5790000.0,3363.2999999999997
417000.0,5790000.0,3621.7000000000003
418000.0,5790000.0,3730.2999999999997
419000.0,5790000.0,3457.6
420000.0,5790000.0,3671.7000000000003
421000.0,5790000.0,3448.1
422000.0,5790000.0,3397.5
423000.0,5790000.0,3721.5999999999995
424000.0,5790000.0,3735.2
425000.0,5790000.0,3602.7999999999997
426000.0,5790000.0,3319.6
464000.0,5790000.0,5023.9
465000.0,5790000.0,4263.1
466000.0,5790000.0,3917.4
467000.0,5790000.0,3680.0
468000.0,5790000.0,3848.8999999999996
469000.0,5790000.0,4873.400000000001
470000.0,5790000.0,4601.599999999999
471000.0,5790000.0,4242.1
472000.0,5790000.0,4130.0
473000.0,5790000.0,3971.5
474000.0,5790000.0,3825.0
475000.0,5790000.0,3891.1000000000004
476000.0,5790000.0,3874.2000000000003
477000.0,5790000.0,3624.9
478000.0,5790000.0,3685.0
479000.0,5790000.0,3534.5
480000.0,5790000.0,3471.0
481000.0,5790000.0,3717.0
482000.0,5790000.0,3666.7000000000003
483000.0,5790000.0,3786.5
484000.0,5790000.0,3728.8
485000.0,5790000.0,3999.8
486000.0,5790000.0,4560.900000000001
487000.0,5790000.0,4943.9
488000.0,5790000.0,4281.0
489000.0,5790000.0,3715.9000000000005
490000.0,5790000.0,3519.9
491000.0,5790000.0,3436.0
492000.0,5790000.0,3335.7999999999997
493000.0,5790000.0,3172.0
494000.0,5790000.0,3109.6
495000.0,5790000.0,3085.1
496000.0,5790000.0,3137.4
497000.0,5790000.0,3103.8999999999996
498000.0,5790000.0,3137.0
499000.0,5790000.0,3195.7999999999997
368000.0,5789000.0,3034.4
369000.0,5789000.0,3062.7
370000.0,5789000.0,3050.6
371000.0,5789000.0,3042.2000000000003
372000.0,5789000.0,3047.3
373000.0,5789000.0,3072.3
374000.0,5789000.0,3074.8
375000.0,5789000.0,3101.8
376000.0,5789000.0,3124.0
377000.0,5789000.0,3154.6
378000.0,5789000.0,3120.2999999999997
379000.0,5789000.0,3131.8
380000.0,5789000.0,3074.6
381000.0,5789000.0,3058.2999999999997
382000.0,5789000.0,3066.0
383000.0,5789000.0,3079.6
384000.0,5789000.0,3207.1
385000.0,5789000.0,3046.5999999999995
386000.0,5789000.0,3137.7
387000.0,5789000.0,3181.5999999999995
388000.0,5789000.0,3173.8999999999996
389000.0,5789000.0,3216.3
390000.0,5789000.0,3179.9
391000.0,5789000.0,3113.6000000000004
392000.0,5789000.0,3099.8
393000.0,5789000.0,3075.0
394000.0,5789000.0,3099.3
395000.0,5789000.0,3070.5
396000.0,5789000.0,3018.6000000000004
397000.0,5789000.0,3025.4
398000.0,5789000.0,2984.0
399000.0,5789000.0,3032.6
400000.0,5789000.0,3079.4
401000.0,5789000.0,3069.0999999999995
402000.0,5789000.0,3069.4
403000.0,5789000.0,3079.8
404000.0,5789000.0,3069.4
405000.0,5789000.0,3065.9000000000005
406000.0,5789000.0,3076.1000000000004
407000.0,5789000.0,3093.8
408000.0,5789000.0,3108.7
409000.0,5789000.0,3155.6
410000.0,5789000.0,3238.6000000000004
411000.0,5789000.0,3396.0
412000.0,5789000.0,4266.1
413000.0,5789000.0,4058.3
414000.0,5789000.0,3480.2
415000.0,5789000.0,3337.1
416000.0,5789000.0,3337.9
417000.0,5789000.0,3408.8999999999996
418000.0,5789000.0,3422.3
419000.0,5789000.0,3477.5
420000.0,5789000.0,3917.7
421000.0,5789000.0,3979.6000000000004
422000.0,5789000.0,3694.5
423000.0,5789000.0,3525.9000000000005
424000.0,5789000.0,3412.7
425000.0,5789000.0,3361.5
426000.0,5789000.0,3340.7999999999997
464000.0,5789000.0,3939.9
465000.0,5789000.0,4077.5
466000.0,5789000.0,3967.5
467000.0,5789000.0,3761.3
468000.0,5789000.0,3736.7000000000003
469000.0,5789000.0,4096.4
470000.0,5789000.0,4067.3
471000.0,5789000.0,3967.4
472000.0,5789000.0,3916.7000000000003
473000.0,5789000.0,3847.3
474000.0,5789000.0,3750.7
475000.0,5789000.0,3697.0
476000.0,5789000.0,3551.2
477000.0,5789000.0,3532.1
478000.0,5789000.0,3310.6
479000.0,5789000.0,3326.2
480000.0,5789000.0,3478.1
481000.0,5789000.0,3435.5
482000.0,5789000.0,3610.7
483000.0,5789000.0,3639.7000000000003
484000.0,5789000.0,3543.2999999999997
485000.0,5789000.0,3653.0
486000.0,5789000.0,3742.4
487000.0,5789000.0,3888.4000000000005
488000.0,5789000.0,4076.5999999999995
489000.0,5789000.0,4192.9
490000.0,5789000.0,4977.799999999999
491000.0,5789000.0,4542.799999999999
492000.0,5789000.0,4079.8
493000.0,5789000.0,3774.6
494000.0,5789000.0,3174.2000000000003
495000.0,5789000.0,3117.9
496000.0,5789000.0,3169.9
497000.0,5789000.0,3195.2
498000.0,5789000.0,3233.2
499000.0,5789000.0,3402.1
500000.0,5789000.0,3399.9
501000.0,5789000.0,3428.2999999999997
363000.0,5788000.0,3042.1
364000.0,5788000.0,3013.2999999999997
366000.0,5788000.0,3035.2
367000.0,5788000.0,3030.2999999999997
368000.0,5788000.0,3031.3
369000.0,5788000.0,3070.0
370000.0,5788000.0,3058.7
371000.0,5788000.0,3064.3
372000.0,5788000.0,3066.9
373000.0,5788000.0,3086.1000000000004
374000.0,5788000.0,3111.8
375000.0,5788000.0,3178.2
376000.0,5788000.0,3286.1000000000004
377000.0,5788000.0,3258.1
378000.0,5788000.0,3230.7
379000.0,5788000.0,3186.0
380000.0,5788000.0,3113.8
381000.0,5788000.0,3083.7
382000.0,5788000.0,3121.7000000000003
383000.0,5788000.0,3083.6000000000004
384000.0,5788000.0,3056.5999999999995
385000.0,5788000.0,3108.4000000000005
386000.0,5788000.0,3119.0999999999995
387000.0,5788000.0,3142.7999999999997
388000.0,5788000.0,3179.8
389000.0,5788000.0,3159.9
390000.0,5788000.0,3147.2000000000003
391000.0,5788000.0,3094.4
392000.0,5788000.0,3110.9000000000005
393000.0,5788000.0,3089.4
394000.0,5788000.0,3079.8
395000.0,5788000.0,3064.0
396000.0,5788000.0,3053.8999999999996
397000.0,5788000.0,3051.8
398000.0,5788000.0,2992.9
399000.0,5788000.0,3051.3999999999996
400000.0,5788000.0,3089.0999999999995
401000.0,5788000.0,3073.0
402000.0,5788000.0,3074.2000000000003
403000.0,5788000.0,3080.2
404000.0,5788000.0,3079.7000000000003
405000.0,5788000.0,3073.8
406000.0,5788000.0,3075.6
407000.0,5788000.0,3103.5
408000.0,5788000.0,3117.6
409000.0,5788000.0,3133.2
410000.0,5788000.0,3146.5
411000.0,5788000.0,3186.3
412000.0,5788000.0,3505.7
413000.0,5788000.0,3754.0
414000.0,5788000.0,3527.4
415000.0,5788000.0,3886.7000000000003
416000.0,5788000.0,3444.0
417000.0,5788000.0,3402.0
418000.0,5788000.0,3436.3
419000.0,5788000.0,3524.8
420000.0,5788000.0,3642.3
421000.0,5788000.0,3653.7
422000.0,5788000.0,3691.9
423000.0,5788000.0,3548.2999999999997
424000.0,5788000.0,3571.8
425000.0,5788000.0,3504.3
426000.0,5788000.0,3735.1
464000.0,5788000.0,3958.2
465000.0,5788000.0,3958.8
466000.0,5788000.0,3818.6000000000004
467000.0,5788000.0,3620.9000000000005
468000.0,5788000.0,3920.0
469000.0,5788000.0,3938.2
470000.0,5788000.0,3810.2
471000.0,5788000.0,3875.9000000000005
472000.0,5788000.0,3733.8
473000.0,5788000.0,3771.5999999999995
474000.0,5788000.0,3614.4
475000.0,5788000.0,3468.8
476000.0,5788000.0,3506.8
477000.0,5788000.0,3511.5999999999995
478000.0,5788000.0,3460.4
479000.0,5788000.0,3302.3
480000.0,5788000.0,3419.7000000000003
481000.0,5788000.0,3441.3
482000.0,5788000.0,3422.7
483000.0,5788000.0,3394.2000000000003
484000.0,5788000.0,3478.7
485000.0,5788000.0,3584.8
486000.0,5788000.0,3391.0
487000.0,5788000.0,3426.3999999999996
488000.0,5788000.0,3523.0
489000.0,5788000.0,3259.6
490000.0,5788000.0,3090.1
491000.0,5788000.0,3054.8
492000.0,5788000.0,3179.2000000000003
493000.0,5788000.0,3447.7999999999997
494000.0,5788000.0,3083.5
495000.0,5788000.0,4631.1
496000.0,5788000.0,4682.200000000001
497000.0,5788000.0,4008.5
498000.0,5788000.0,4341.0
499000.0,5788000.0,4008.5
500000.0,5788000.0,3848.6000000000004
501000.0,5788000.0,3684.3
502000.0,5788000.0,3568.2999999999997
503000.0,5788000.0,3337.2000000000003
362000.0,5787000.0,3030.0
363000.0,5787000.0,3083.2999999999997
364000.0,5787000.0,3061.5999999999995
365000.0,5787000.0,3035.7999999999997
366000.0,5787000.0,3026.5
367000.0,5787000.0,3053.4000000000005
368000.0,5787000.0,3051.5999999999995
369000.0,5787000.0,3027.7
370000.0,5787000.0,3080.2
371000.0,5787000.0,3080.9000000000005
372000.0,5787000.0,3104.9
373000.0,5787000.0,3108.5
374000.0,5787000.0,3128.6000000000004
375000.0,5787000.0,3229.8
376000.0,5787000.0,3242.5
377000.0,5787000.0,3266.8
378000.0,5787000.0,3270.6
379000.0,5787000.0,3198.2999999999997
380000.0,5787000.0,3185.9000000000005
381000.0,5787000.0,3132.4
382000.0,5787000.0,3554.7000000000003
383000.0,5787000.0,3178.2999999999997
384000.0,5787000.0,3052.3
385000.0,5787000.0,3256.2
386000.0,5787000.0,3132.6
387000.0,5787000.0,3091.8
388000.0,5787000.0,3143.7
389000.0,5787000.0,3196.2
390000.0,5787000.0,3154.7000000000003
391000.0,5787000.0,3138.7
392000.0,5787000.0,3110.9000000000005
393000.0,5787000.0,3097.7999999999997
394000.0,5787000.0,3087.4
395000.0,5787000.0,3081.8
396000.0,5787000.0,3075.2999999999997
397000.0,5787000.0,3072.5
398000.0,5787000.0,3004.7000000000003
399000.0,5787000.0,3014.3
400000.0,5787000.0,3107.6
401000.0,5787000.0,3074.9
402000.0,5787000.0,3079.9
403000.0,5787000.0,3078.2
404000.0,5787000.0,3087.7999999999997
405000.0,5787000.0,3080.4
406000.0,5787000.0,3080.7
407000.0,5787000.0,3091.5
408000.0,5787000.0,3126.9
409000.0,5787000.0,3226.1000000000004
410000.0,5787000.0,3159.2000000000003
411000.0,5787000.0,3165.6
412000.0,5787000.0,3156.5
413000.0,5787000.0,3260.2
414000.0,5787000.0,3736.9
415000.0,5787000.0,3380.7999999999997
416000.0,5787000.0,4249.5
417000.0,5787000.0,3714.0999999999995
418000.0,5787000.0,3762.7
419000.0,5787000.0,3833.6000000000004
420000.0,5787000.0,3988.2
421000.0,5787000.0,4010.9000000000005
422000.0,5787000.0,3940.5
423000.0,5787000.0,3691.9
424000.0,5787000.0,3679.9
425000.0,5787000.0,3463.4000000000005
426000.0,5787000.0,3381.3999999999996
464000.0,5787000.0,3667.6
465000.0,5787000.0,3830.2999999999997
466000.0,5787000.0,3472.9
467000.0,5787000.0,3570.2
468000.0,5787000.0,3669.0
469000.0,5787000.0,3847.9
470000.0,5787000.0,3755.6
471000.0,5787000.0,3708.7
472000.0,5787000.0,3691.8
473000.0,5787000.0,3572.5
474000.0,5787000.0,3614.0999999999995
