x,y,z
436000.0,5512000.0,4534.099999999999
437000.0,5512000.0,4761.1
438000.0,5512000.0,4660.7
439000.0,5512000.0,4298.2
440000.0,5512000.0,4175.2
441000.0,5512000.0,4213.3
442000.0,5512000.0,4480.0
443000.0,5512000.0,4227.4
444000.0,5512000.0,4198.6
445000.0,5512000.0,4465.8
446000.0,5512000.0,4451.1
447000.0,5512000.0,4322.9
448000.0,5512000.0,4438.400000000001
449000.0,5512000.0,4450.299999999999
450000.0,5512000.0,4074.3
451000.0,5512000.0,3871.8
452000.0,5512000.0,3549.4
453000.0,5512000.0,3530.0
454000.0,5512000.0,3499.8
455000.0,5512000.0,3517.0
456000.0,5512000.0,3515.0
457000.0,5512000.0,3497.3
458000.0,5512000.0,3504.2000000000003
459000.0,5512000.0,3516.3
460000.0,5512000.0,3518.8
461000.0,5512000.0,3521.5999999999995
462000.0,5512000.0,3530.1
320000.0,5511000.0,4068.5
322000.0,5511000.0,5081.8
323000.0,5511000.0,5365.699999999999
324000.0,5511000.0,5756.0
325000.0,5511000.0,4973.400000000001
326000.0,5511000.0,4320.0
327000.0,5511000.0,3989.7000000000003
328000.0,5511000.0,3991.9
329000.0,5511000.0,4204.700000000001
330000.0,5511000.0,4422.1
331000.0,5511000.0,5246.700000000001
332000.0,5511000.0,5225.299999999999
333000.0,5511000.0,5204.6
334000.0,5511000.0,5122.4
335000.0,5511000.0,5758.6
336000.0,5511000.0,5793.8
337000.0,5511000.0,4370.900000000001
338000.0,5511000.0,5554.400000000001
339000.0,5511000.0,5473.199999999999
340000.0,5511000.0,6455.0
341000.0,5511000.0,6867.4
342000.0,5511000.0,6939.1
343000.0,5511000.0,6865.9
344000.0,5511000.0,6774.8
345000.0,5511000.0,6559.400000000001
346000.0,5511000.0,6998.8
347000.0,5511000.0,7452.0
348000.0,5511000.0,7950.1
349000.0,5511000.0,6884.8
350000.0,5511000.0,7654.6
351000.0,5511000.0,7207.3
352000.0,5511000.0,6043.0
353000.0,5511000.0,7387.799999999999
354000.0,5511000.0,7299.6
355000.0,5511000.0,6635.4
356000.0,5511000.0,7086.1
357000.0,5511000.0,7706.800000000001
358000.0,5511000.0,8231.6
359000.0,5511000.0,8791.0
360000.0,5511000.0,8514.5
361000.0,5511000.0,8988.2
362000.0,5511000.0,9577.5
363000.0,5511000.0,10108.4
364000.0,5511000.0,9778.8
365000.0,5511000.0,9221.1
366000.0,5511000.0,8482.1
367000.0,5511000.0,8487.3
368000.0,5511000.0,9178.099999999999
369000.0,5511000.0,9546.4
370000.0,5511000.0,8516.4
371000.0,5511000.0,7677.6
372000.0,5511000.0,7186.2
373000.0,5511000.0,6695.699999999999
374000.0,5511000.0,7067.1
375000.0,5511000.0,7400.1
376000.0,5511000.0,5901.800000000001
377000.0,5511000.0,7224.5
378000.0,5511000.0,6324.0
379000.0,5511000.0,7095.799999999999
380000.0,5511000.0,7475.4
381000.0,5511000.0,6958.4
382000.0,5511000.0,6265.1
383000.0,5511000.0,6723.6
384000.0,5511000.0,5763.6
385000.0,5511000.0,4767.7
386000.0,5511000.0,5113.5
387000.0,5511000.0,6024.300000000001
388000.0,5511000.0,5079.700000000001
389000.0,5511000.0,5991.6
390000.0,5511000.0,6143.299999999999
391000.0,5511000.0,5429.700000000001
392000.0,5511000.0,5181.900000000001
393000.0,5511000.0,5881.6
394000.0,5511000.0,5660.299999999999
395000.0,5511000.0,5686.800000000001
396000.0,5511000.0,5836.900000000001
397000.0,5511000.0,6702.6
398000.0,5511000.0,6201.3
399000.0,5511000.0,5588.0
400000.0,5511000.0,5712.9
401000.0,5511000.0,5842.6
402000.0,5511000.0,5649.0
403000.0,5511000.0,5371.2
404000.0,5511000.0,5841.900000000001
405000.0,5511000.0,5775.4
406000.0,5511000.0,4056.9
407000.0,5511000.0,5366.3
408000.0,5511000.0,5694.200000000001
409000.0,5511000.0,5935.1
410000.0,5511000.0,6429.200000000001
411000.0,5511000.0,6182.1
412000.0,5511000.0,5998.7
413000.0,5511000.0,5137.799999999999
414000.0,5511000.0,5267.7
415000.0,5511000.0,4045.6
416000.0,5511000.0,5322.7
417000.0,5511000.0,5967.7
418000.0,5511000.0,5674.400000000001
419000.0,5511000.0,5359.8
420000.0,5511000.0,4600.0
421000.0,5511000.0,5325.0
422000.0,5511000.0,5880.1
423000.0,5511000.0,5663.8
424000.0,5511000.0,5032.7
425000.0,5511000.0,5632.5
426000.0,5511000.0,5226.700000000001
427000.0,5511000.0,5484.1
428000.0,5511000.0,5316.0
429000.0,5511000.0,5480.799999999999
430000.0,5511000.0,5421.800000000001
431000.0,5511000.0,5609.6
432000.0,5511000.0,5251.700000000001
433000.0,5511000.0,5559.400000000001
434000.0,5511000.0,5161.4
435000.0,5511000.0,4659.3
436000.0,5511000.0,4388.9
437000.0,5511000.0,4308.1
438000.0,5511000.0,4404.2
439000.0,5511000.0,4296.4
440000.0,5511000.0,4320.8
441000.0,5511000.0,4505.6
442000.0,5511000.0,4878.8
443000.0,5511000.0,4895.0
444000.0,5511000.0,4450.7
445000.0,5511000.0,4335.900000000001
446000.0,5511000.0,4357.5
447000.0,5511000.0,4713.2
448000.0,5511000.0,4564.3
449000.0,5511000.0,4466.2
450000.0,5511000.0,4339.0
451000.0,5511000.0,4075.6
452000.0,5511000.0,3540.2
453000.0,5511000.0,3538.7
454000.0,5511000.0,3545.4
455000.0,5511000.0,3500.5
456000.0,5511000.0,3501.9
457000.0,5511000.0,3535.2999999999997
458000.0,5511000.0,3518.8
459000.0,5511000.0,3522.3
460000.0,5511000.0,3521.7000000000003
461000.0,5511000.0,3535.1
321000.0,5510000.0,4275.900000000001
322000.0,5510000.0,4236.9
323000.0,5510000.0,5099.3
324000.0,5510000.0,4551.0
325000.0,5510000.0,4358.6
326000.0,5510000.0,3991.8
327000.0,5510000.0,3980.7
328000.0,5510000.0,4445.0
329000.0,5510000.0,4929.4
330000.0,5510000.0,4776.9
331000.0,5510000.0,5868.099999999999
332000.0,5510000.0,5344.400000000001
333000.0,5510000.0,4992.0
334000.0,5510000.0,5701.0
335000.0,5510000.0,6847.9
336000.0,5510000.0,5673.199999999999
337000.0,5510000.0,5161.900000000001
338000.0,5510000.0,5617.1
339000.0,5510000.0,5357.799999999999
340000.0,5510000.0,6954.6
341000.0,5510000.0,6697.4
342000.0,5510000.0,7531.2
343000.0,5510000.0,7067.1
344000.0,5510000.0,7212.1
345000.0,5510000.0,7821.4
346000.0,5510000.0,7932.7
347000.0,5510000.0,7846.1
348000.0,5510000.0,7850.5
349000.0,5510000.0,7495.2
350000.0,5510000.0,7793.0
351000.0,5510000.0,6911.800000000001
352000.0,5510000.0,7037.7
353000.0,5510000.0,6794.400000000001
354000.0,5510000.0,6702.200000000001
355000.0,5510000.0,6456.2
356000.0,5510000.0,7039.300000000001
357000.0,5510000.0,7582.200000000001
358000.0,5510000.0,8199.9
359000.0,5510000.0,8087.4
360000.0,5510000.0,8671.900000000001
361000.0,5510000.0,9756.6
362000.0,5510000.0,10608.0
363000.0,5510000.0,10041.0
364000.0,5510000.0,9429.400000000001
365000.0,5510000.0,9254.3
366000.0,5510000.0,9650.599999999999
367000.0,5510000.0,9442.2
368000.0,5510000.0,9465.3
369000.0,5510000.0,8519.8
370000.0,5510000.0,7837.9
371000.0,5510000.0,7377.799999999999
372000.0,5510000.0,6958.9
373000.0,5510000.0,6510.599999999999
374000.0,5510000.0,7180.4
375000.0,5510000.0,7568.6
376000.0,5510000.0,6727.9
377000.0,5510000.0,6533.4
378000.0,5510000.0,6647.3
379000.0,5510000.0,5899.700000000001
380000.0,5510000.0,7397.200000000001
381000.0,5510000.0,6987.0
382000.0,5510000.0,7358.5
383000.0,5510000.0,6059.300000000001
384000.0,5510000.0,4840.7
385000.0,5510000.0,5355.2
386000.0,5510000.0,5480.799999999999
387000.0,5510000.0,5513.299999999999
388000.0,5510000.0,6004.0
389000.0,5510000.0,5446.4
390000.0,5510000.0,5296.900000000001
391000.0,5510000.0,6055.5
392000.0,5510000.0,5721.0
393000.0,5510000.0,5279.0
394000.0,5510000.0,6157.4
395000.0,5510000.0,6036.900000000001
396000.0,5510000.0,6112.5
397000.0,5510000.0,5973.7
398000.0,5510000.0,5935.0
399000.0,5510000.0,6330.2
400000.0,5510000.0,6368.8
401000.0,5510000.0,6461.3
402000.0,5510000.0,5877.9
403000.0,5510000.0,5593.299999999999
404000.0,5510000.0,5517.3
405000.0,5510000.0,4107.799999999999
406000.0,5510000.0,4141.9
407000.0,5510000.0,4866.3
408000.0,5510000.0,5927.4
409000.0,5510000.0,6179.0
410000.0,5510000.0,6271.0
411000.0,5510000.0,5352.7
412000.0,5510000.0,4834.3
413000.0,5510000.0,4351.8
414000.0,5510000.0,4555.1
415000.0,5510000.0,4307.3
416000.0,5510000.0,4831.8
417000.0,5510000.0,5743.9
418000.0,5510000.0,5722.6
419000.0,5510000.0,4833.3
420000.0,5510000.0,4881.7
421000.0,5510000.0,5630.9
422000.0,5510000.0,6058.8
423000.0,5510000.0,5944.1
424000.0,5510000.0,5433.0
425000.0,5510000.0,5696.0
426000.0,5510000.0,5321.5
427000.0,5510000.0,5388.6
428000.0,5510000.0,5634.5
429000.0,5510000.0,5688.7
430000.0,5510000.0,5659.0
431000.0,5510000.0,5493.6
432000.0,5510000.0,5070.900000000001
433000.0,5510000.0,4650.2
434000.0,5510000.0,4605.8
435000.0,5510000.0,4597.4
436000.0,5510000.0,4768.8
437000.0,5510000.0,4436.1
438000.0,5510000.0,4638.2
439000.0,5510000.0,4778.3
440000.0,5510000.0,4831.3
441000.0,5510000.0,5027.7
442000.0,5510000.0,5511.3
443000.0,5510000.0,5533.5
444000.0,5510000.0,4769.700000000001
445000.0,5510000.0,4406.4
446000.0,5510000.0,4730.2
447000.0,5510000.0,4665.0
448000.0,5510000.0,4496.8
449000.0,5510000.0,4377.7
450000.0,5510000.0,4321.8
451000.0,5510000.0,4050.5
452000.0,5510000.0,3540.0
453000.0,5510000.0,3544.5
454000.0,5510000.0,3575.7999999999997
455000.0,5510000.0,3542.5
456000.0,5510000.0,3536.0
457000.0,5510000.0,3490.9000000000005
458000.0,5510000.0,3528.5
459000.0,5510000.0,3533.4000000000005
460000.0,5510000.0,3523.8999999999996
320000.0,5509000.0,4804.9
321000.0,5509000.0,5354.300000000001
322000.0,5509000.0,4755.1
323000.0,5509000.0,3957.2000000000003
324000.0,5509000.0,4306.0
325000.0,5509000.0,3975.8
326000.0,5509000.0,3994.8
327000.0,5509000.0,5021.3
328000.0,5509000.0,5539.5
329000.0,5509000.0,5455.4
330000.0,5509000.0,6127.799999999999
331000.0,5509000.0,5106.2
332000.0,5509000.0,6432.4
333000.0,5509000.0,4864.6
334000.0,5509000.0,6728.6
335000.0,5509000.0,5947.200000000001
336000.0,5509000.0,6420.0
337000.0,5509000.0,4893.8
338000.0,5509000.0,6746.0
339000.0,5509000.0,5718.9
340000.0,5509000.0,6910.599999999999
341000.0,5509000.0,7566.800000000001
342000.0,5509000.0,7837.4
343000.0,5509000.0,7669.300000000001
344000.0,5509000.0,7878.5
345000.0,5509000.0,8493.2
346000.0,5509000.0,8353.6
347000.0,5509000.0,8855.0
348000.0,5509000.0,8561.5
349000.0,5509000.0,7741.900000000001
350000.0,5509000.0,6831.900000000001
351000.0,5509000.0,7047.799999999999
352000.0,5509000.0,6594.700000000001
353000.0,5509000.0,7078.4
354000.0,5509000.0,6656.1
355000.0,5509000.0,7686.3
356000.0,5509000.0,8052.3
357000.0,5509000.0,8036.0
358000.0,5509000.0,7546.5
359000.0,5509000.0,8895.7
360000.0,5509000.0,9939.9
361000.0,5509000.0,10048.5
362000.0,5509000.0,9766.3
363000.0,5509000.0,9111.6
364000.0,5509000.0,8842.6
365000.0,5509000.0,9622.0
366000.0,5509000.0,8890.3
367000.0,5509000.0,8827.0
368000.0,5509000.0,8704.400000000001
369000.0,5509000.0,7704.9
370000.0,5509000.0,6988.4
371000.0,5509000.0,7076.700000000001
372000.0,5509000.0,7523.0
373000.0,5509000.0,6915.599999999999
374000.0,5509000.0,6231.6
375000.0,5509000.0,7170.699999999999
376000.0,5509000.0,7001.5
377000.0,5509000.0,6297.200000000001
378000.0,5509000.0,6320.0
379000.0,5509000.0,6739.5
380000.0,5509000.0,6715.0
381000.0,5509000.0,5961.1
382000.0,5509000.0,5766.4
383000.0,5509000.0,4961.4
384000.0,5509000.0,5387.1
385000.0,5509000.0,6004.300000000001
386000.0,5509000.0,5721.6
387000.0,5509000.0,6002.0
388000.0,5509000.0,6074.5
389000.0,5509000.0,5907.1
390000.0,5509000.0,5864.300000000001
391000.0,5509000.0,6304.9
392000.0,5509000.0,5984.200000000001
393000.0,5509000.0,5964.400000000001
394000.0,5509000.0,6240.5
395000.0,5509000.0,6603.299999999999
396000.0,5509000.0,6116.4
397000.0,5509000.0,5931.900000000001
398000.0,5509000.0,6230.699999999999
399000.0,5509000.0,6081.4
400000.0,5509000.0,5995.699999999999
401000.0,5509000.0,5889.200000000001
402000.0,5509000.0,5604.200000000001
403000.0,5509000.0,5712.1
404000.0,5509000.0,4111.8
405000.0,5509000.0,5196.0
406000.0,5509000.0,4552.1
407000.0,5509000.0,5828.0
408000.0,5509000.0,5974.700000000001
409000.0,5509000.0,6398.8
410000.0,5509000.0,5512.4
411000.0,5509000.0,4622.9
412000.0,5509000.0,4740.6
413000.0,5509000.0,4935.0
414000.0,5509000.0,5031.9
415000.0,5509000.0,4417.5
416000.0,5509000.0,5457.5
417000.0,5509000.0,5888.0
418000.0,5509000.0,5503.099999999999
419000.0,5509000.0,4875.2
420000.0,5509000.0,5528.099999999999
421000.0,5509000.0,5462.4
422000.0,5509000.0,6008.5
423000.0,5509000.0,5756.2
424000.0,5509000.0,5586.4
425000.0,5509000.0,5887.200000000001
426000.0,5509000.0,5132.3
427000.0,5509000.0,5383.5
428000.0,5509000.0,5644.300000000001
429000.0,5509000.0,5430.599999999999
430000.0,5509000.0,5160.2
431000.0,5509000.0,4914.6
432000.0,5509000.0,4982.7
433000.0,5509000.0,4634.3
434000.0,5509000.0,5081.1
435000.0,5509000.0,5446.4
436000.0,5509000.0,5074.9
437000.0,5509000.0,4624.5
438000.0,5509000.0,4504.9
439000.0,5509000.0,5273.299999999999
440000.0,5509000.0,5409.700000000001
441000.0,5509000.0,5531.0
442000.0,5509000.0,5438.099999999999
443000.0,5509000.0,5466.3
444000.0,5509000.0,5479.700000000001
445000.0,5509000.0,4492.799999999999
446000.0,5509000.0,4608.9
447000.0,5509000.0,4301.1
448000.0,5509000.0,4135.8
449000.0,5509000.0,4318.3
450000.0,5509000.0,4300.4
451000.0,5509000.0,3778.7
452000.0,5509000.0,3537.6
453000.0,5509000.0,3529.0999999999995
454000.0,5509000.0,3521.5
455000.0,5509000.0,3525.7999999999997
456000.0,5509000.0,3530.4
457000.0,5509000.0,3524.4
458000.0,5509000.0,3490.2
459000.0,5509000.0,3538.6000000000004
460000.0,5509000.0,3490.4
319000.0,5508000.0,5383.7
320000.0,5508000.0,5745.4
321000.0,5508000.0,4521.599999999999
322000.0,5508000.0,6085.599999999999
323000.0,5508000.0,4559.099999999999
324000.0,5508000.0,3984.7000000000003
325000.0,5508000.0,4000.2999999999997
326000.0,5508000.0,4888.8
327000.0,5508000.0,5203.6
328000.0,5508000.0,5277.1
329000.0,5508000.0,5598.9
330000.0,5508000.0,6037.0
331000.0,5508000.0,6226.6
332000.0,5508000.0,5786.900000000001
333000.0,5508000.0,6398.9
334000.0,5508000.0,6922.6
335000.0,5508000.0,6356.900000000001
336000.0,5508000.0,4936.0
337000.0,5508000.0,5607.4
338000.0,5508000.0,7002.7
339000.0,5508000.0,6364.5
340000.0,5508000.0,7008.9
341000.0,5508000.0,7052.5
342000.0,5508000.0,7832.5
343000.0,5508000.0,7858.200000000001
344000.0,5508000.0,8286.5
345000.0,5508000.0,8839.8
346000.0,5508000.0,9323.9
347000.0,5508000.0,8930.599999999999
348000.0,5508000.0,8120.8
349000.0,5508000.0,7214.6
350000.0,5508000.0,7186.0
351000.0,5508000.0,7594.8
352000.0,5508000.0,7623.0
353000.0,5508000.0,7485.9
354000.0,5508000.0,7369.300000000001
355000.0,5508000.0,7917.799999999999
356000.0,5508000.0,9362.8
357000.0,5508000.0,9063.0
358000.0,5508000.0,8468.8
359000.0,5508000.0,8077.9
360000.0,5508000.0,9528.8
361000.0,5508000.0,9582.8
362000.0,5508000.0,9188.5
363000.0,5508000.0,8459.400000000001
364000.0,5508000.0,9231.2
365000.0,5508000.0,9131.3
366000.0,5508000.0,8881.4
367000.0,5508000.0,8164.700000000001
368000.0,5508000.0,7794.299999999999
369000.0,5508000.0,7237.9
370000.0,5508000.0,7557.9
371000.0,5508000.0,6948.299999999999
372000.0,5508000.0,6514.1
373000.0,5508000.0,6489.400000000001
374000.0,5508000.0,6327.6
375000.0,5508000.0,5960.299999999999
376000.0,5508000.0,6069.0
377000.0,5508000.0,6728.4
378000.0,5508000.0,6248.4
379000.0,5508000.0,6155.799999999999
380000.0,5508000.0,6711.1
381000.0,5508000.0,6738.8
382000.0,5508000.0,4951.599999999999
383000.0,5508000.0,5683.299999999999
384000.0,5508000.0,6072.7
385000.0,5508000.0,6420.799999999999
386000.0,5508000.0,6484.300000000001
387000.0,5508000.0,5787.7
388000.0,5508000.0,5548.5
389000.0,5508000.0,6113.7
390000.0,5508000.0,6119.6
391000.0,5508000.0,6490.599999999999
392000.0,5508000.0,6110.599999999999
393000.0,5508000.0,5734.700000000001
394000.0,5508000.0,6434.8
395000.0,5508000.0,6374.400000000001
396000.0,5508000.0,6333.5
397000.0,5508000.0,6017.6
398000.0,5508000.0,5320.0
399000.0,5508000.0,5481.2
400000.0,5508000.0,5177.7
401000.0,5508000.0,5687.799999999999
402000.0,5508000.0,5723.6
403000.0,5508000.0,5027.200000000001
404000.0,5508000.0,4133.400000000001
405000.0,5508000.0,4958.2
406000.0,5508000.0,5843.8
407000.0,5508000.0,6141.5
408000.0,5508000.0,6209.8
409000.0,5508000.0,5616.0
410000.0,5508000.0,5071.8
411000.0,5508000.0,5848.099999999999
412000.0,5508000.0,4613.400000000001
413000.0,5508000.0,5578.5
414000.0,5508000.0,5230.5
415000.0,5508000.0,4970.1
416000.0,5508000.0,5233.299999999999
417000.0,5508000.0,5891.900000000001
418000.0,5508000.0,5160.0
419000.0,5508000.0,5685.599999999999
420000.0,5508000.0,5857.3
421000.0,5508000.0,6039.200000000001
422000.0,5508000.0,5878.5
423000.0,5508000.0,5831.2
424000.0,5508000.0,6024.9
425000.0,5508000.0,5450.599999999999
426000.0,5508000.0,5466.700000000001
427000.0,5508000.0,5708.199999999999
428000.0,5508000.0,5841.6
429000.0,5508000.0,5791.900000000001
430000.0,5508000.0,5380.0
431000.0,5508000.0,4905.1
432000.0,5508000.0,4902.9
433000.0,5508000.0,5589.200000000001
434000.0,5508000.0,5512.5
435000.0,5508000.0,5379.5
436000.0,5508000.0,4657.0
437000.0,5508000.0,4817.6
438000.0,5508000.0,4971.3
439000.0,5508000.0,5135.2
440000.0,5508000.0,5142.200000000001
441000.0,5508000.0,5383.299999999999
442000.0,5508000.0,5325.2
443000.0,5508000.0,5407.1
444000.0,5508000.0,5035.7
445000.0,5508000.0,4808.1
446000.0,5508000.0,4468.1
447000.0,5508000.0,4361.3
448000.0,5508000.0,4279.4
449000.0,5508000.0,4209.2
450000.0,5508000.0,4058.3
451000.0,5508000.0,3539.7000000000003
452000.0,5508000.0,3539.5
453000.0,5508000.0,3527.9
454000.0,5508000.0,3539.4
455000.0,5508000.0,3529.4
456000.0,5508000.0,3536.0
457000.0,5508000.0,3533.7
458000.0,5508000.0,3514.7000000000003
459000.0,5508000.0,3524.4
317000.0,5507000.0,4093.8999999999996
318000.0,5507000.0,5389.300000000001
319000.0,5507000.0,5556.6
320000.0,5507000.0,5599.9
321000.0,5507000.0,4807.4
322000.0,5507000.0,5123.3
323000.0,5507000.0,4432.200000000001
324000.0,5507000.0,4010.9000000000005
325000.0,5507000.0,4330.6
326000.0,5507000.0,4493.0
327000.0,5507000.0,4396.9
328000.0,5507000.0,4516.5
329000.0,5507000.0,4618.400000000001
330000.0,5507000.0,5590.299999999999
331000.0,5507000.0,6643.4
332000.0,5507000.0,6578.0
333000.0,5507000.0,5329.200000000001
334000.0,5507000.0,6472.7
335000.0,5507000.0,5588.0
336000.0,5507000.0,4851.7
337000.0,5507000.0,6487.1
338000.0,5507000.0,7256.3
339000.0,5507000.0,6953.9
340000.0,5507000.0,6434.6
341000.0,5507000.0,6818.5
342000.0,5507000.0,6920.299999999999
343000.0,5507000.0,8164.2
344000.0,5507000.0,7816.1
345000.0,5507000.0,8852.5
346000.0,5507000.0,8762.8
347000.0,5507000.0,8262.1
348000.0,5507000.0,7808.8
349000.0,5507000.0,7888.200000000001
350000.0,5507000.0,7986.900000000001
351000.0,5507000.0,7399.300000000001
352000.0,5507000.0,7910.1
353000.0,5507000.0,7108.099999999999
354000.0,5507000.0,7972.9
355000.0,5507000.0,8776.0
356000.0,5507000.0,8757.5
357000.0,5507000.0,8848.7
358000.0,5507000.0,9124.8
359000.0,5507000.0,9487.5
360000.0,5507000.0,9902.7
361000.0,5507000.0,8798.9
362000.0,5507000.0,8155.900000000001
363000.0,5507000.0,8689.6
364000.0,5507000.0,8906.4
365000.0,5507000.0,8809.7
366000.0,5507000.0,7932.5
367000.0,5507000.0,8437.3
368000.0,5507000.0,7472.799999999999
369000.0,5507000.0,7169.200000000001
370000.0,5507000.0,7019.200000000001
371000.0,5507000.0,7043.6
372000.0,5507000.0,6491.800000000001
373000.0,5507000.0,7150.5
374000.0,5507000.0,7172.6
375000.0,5507000.0,6655.2
376000.0,5507000.0,6361.2
377000.0,5507000.0,6284.8
378000.0,5507000.0,5160.2
379000.0,5507000.0,5578.7
380000.0,5507000.0,5275.599999999999
381000.0,5507000.0,5491.3
382000.0,5507000.0,5693.5
383000.0,5507000.0,5638.6
384000.0,5507000.0,6223.6
385000.0,5507000.0,6882.6
386000.0,5507000.0,7037.9
387000.0,5507000.0,6352.7
388000.0,5507000.0,6421.1
389000.0,5507000.0,5825.599999999999
390000.0,5507000.0,6194.5
391000.0,5507000.0,6033.0
392000.0,5507000.0,6108.7
393000.0,5507000.0,6554.200000000001
394000.0,5507000.0,6888.7
395000.0,5507000.0,6215.699999999999
396000.0,5507000.0,5852.7
397000.0,5507000.0,6541.0
398000.0,5507000.0,5746.800000000001
399000.0,5507000.0,4593.5
400000.0,5507000.0,5472.4
401000.0,5507000.0,6013.6
402000.0,5507000.0,5847.7
403000.0,5507000.0,4745.900000000001
404000.0,5507000.0,4199.9
405000.0,5507000.0,4939.3
406000.0,5507000.0,5121.0
407000.0,5507000.0,5882.0
408000.0,5507000.0,5711.0
409000.0,5507000.0,5629.5
410000.0,5507000.0,5904.700000000001
411000.0,5507000.0,5889.200000000001
412000.0,5507000.0,4860.2
413000.0,5507000.0,5440.799999999999
414000.0,5507000.0,4251.0
415000.0,5507000.0,5238.8
416000.0,5507000.0,5579.1
417000.0,5507000.0,5755.599999999999
418000.0,5507000.0,4854.9
419000.0,5507000.0,5923.199999999999
420000.0,5507000.0,5231.1
421000.0,5507000.0,6311.1
422000.0,5507000.0,6091.800000000001
423000.0,5507000.0,5863.4
424000.0,5507000.0,5746.800000000001
425000.0,5507000.0,5139.8
426000.0,5507000.0,5946.2
427000.0,5507000.0,6116.5
428000.0,5507000.0,5987.9
429000.0,5507000.0,5880.9
430000.0,5507000.0,5261.6
431000.0,5507000.0,5500.9
432000.0,5507000.0,5669.1
433000.0,5507000.0,5558.199999999999
434000.0,5507000.0,5192.3
435000.0,5507000.0,5225.799999999999
436000.0,5507000.0,5339.5
437000.0,5507000.0,4976.0
438000.0,5507000.0,4859.9
439000.0,5507000.0,4715.7
440000.0,5507000.0,4900.900000000001
441000.0,5507000.0,5036.4
442000.0,5507000.0,5172.200000000001
443000.0,5507000.0,5328.299999999999
444000.0,5507000.0,4908.9
445000.0,5507000.0,4603.5
446000.0,5507000.0,4027.8999999999996
447000.0,5507000.0,3999.9
448000.0,5507000.0,4086.9
449000.0,5507000.0,4081.3
450000.0,5507000.0,3942.2000000000003
451000.0,5507000.0,3552.3
452000.0,5507000.0,3547.4
453000.0,5507000.0,3565.4
454000.0,5507000.0,3538.2
455000.0,5507000.0,3535.6
456000.0,5507000.0,3538.2999999999997
457000.0,5507000.0,3495.1
316000.0,5506000.0,4125.5
317000.0,5506000.0,5591.800000000001
318000.0,5506000.0,5576.2
319000.0,5506000.0,5864.8
320000.0,5506000.0,4708.8
321000.0,5506000.0,5782.3
322000.0,5506000.0,4401.8
323000.0,5506000.0,4584.8
324000.0,5506000.0,4025.9000000000005
325000.0,5506000.0,4562.5
326000.0,5506000.0,5151.3
327000.0,5506000.0,5775.699999999999
328000.0,5506000.0,5333.4
329000.0,5506000.0,5026.9
330000.0,5506000.0,5276.6
331000.0,5506000.0,6480.799999999999
332000.0,5506000.0,6964.5
333000.0,5506000.0,5565.799999999999
334000.0,5506000.0,6644.200000000001
335000.0,5506000.0,6587.0
336000.0,5506000.0,5488.199999999999
337000.0,5506000.0,5852.4
338000.0,5506000.0,6587.4
339000.0,5506000.0,7207.6
340000.0,5506000.0,7692.7
341000.0,5506000.0,8466.3
342000.0,5506000.0,8496.8
343000.0,5506000.0,8228.0
344000.0,5506000.0,8250.7
345000.0,5506000.0,8475.599999999999
346000.0,5506000.0,7832.6
347000.0,5506000.0,7747.0
348000.0,5506000.0,8060.1
349000.0,5506000.0,7942.799999999999
350000.0,5506000.0,7903.9
351000.0,5506000.0,7983.3
352000.0,5506000.0,7439.1
353000.0,5506000.0,7889.8
354000.0,5506000.0,8496.699999999999
355000.0,5506000.0,8224.7
356000.0,5506000.0,8537.0
357000.0,5506000.0,8912.3
358000.0,5506000.0,9588.0
359000.0,5506000.0,10071.4
360000.0,5506000.0,9042.2
361000.0,5506000.0,8140.900000000001
362000.0,5506000.0,7857.9
363000.0,5506000.0,8706.3
364000.0,5506000.0,9469.7
365000.0,5506000.0,8413.2
366000.0,5506000.0,7538.4
367000.0,5506000.0,7869.8
368000.0,5506000.0,7171.900000000001
369000.0,5506000.0,7275.299999999999
370000.0,5506000.0,6799.0
371000.0,5506000.0,7099.1
372000.0,5506000.0,6693.199999999999
373000.0,5506000.0,7131.2
374000.0,5506000.0,6412.799999999999
375000.0,5506000.0,6692.200000000001
376000.0,5506000.0,6030.299999999999
377000.0,5506000.0,5569.700000000001
378000.0,5506000.0,5638.6
379000.0,5506000.0,5563.9
380000.0,5506000.0,5929.8
381000.0,5506000.0,6288.0
382000.0,5506000.0,5943.7
383000.0,5506000.0,7107.4
384000.0,5506000.0,6443.8
385000.0,5506000.0,6063.6
386000.0,5506000.0,6789.8
387000.0,5506000.0,7263.5
388000.0,5506000.0,7132.799999999999
389000.0,5506000.0,6662.799999999999
390000.0,5506000.0,6394.300000000001
391000.0,5506000.0,6543.5
392000.0,5506000.0,6230.5
393000.0,5506000.0,6387.4
394000.0,5506000.0,6279.700000000001
395000.0,5506000.0,5741.900000000001
396000.0,5506000.0,5691.6
397000.0,5506000.0,5608.8
398000.0,5506000.0,5184.0
399000.0,5506000.0,4847.6
400000.0,5506000.0,5304.700000000001
401000.0,5506000.0,4300.1
402000.0,5506000.0,4320.1
403000.0,5506000.0,4344.5
404000.0,5506000.0,4521.8
405000.0,5506000.0,5404.700000000001
406000.0,5506000.0,4805.8
407000.0,5506000.0,5253.199999999999
408000.0,5506000.0,5899.5
409000.0,5506000.0,6196.700000000001
410000.0,5506000.0,5548.099999999999
411000.0,5506000.0,4861.4
412000.0,5506000.0,5120.0
413000.0,5506000.0,5597.799999999999
414000.0,5506000.0,4247.9
415000.0,5506000.0,4950.5
416000.0,5506000.0,5499.1
417000.0,5506000.0,5797.799999999999
418000.0,5506000.0,4913.5
419000.0,5506000.0,6163.5
420000.0,5506000.0,5598.299999999999
421000.0,5506000.0,6238.299999999999
422000.0,5506000.0,6408.7
423000.0,5506000.0,6006.900000000001
424000.0,5506000.0,6149.400000000001
425000.0,5506000.0,5078.0
426000.0,5506000.0,5370.599999999999
427000.0,5506000.0,5801.700000000001
428000.0,5506000.0,5858.299999999999
429000.0,5506000.0,5455.599999999999
430000.0,5506000.0,5470.0
431000.0,5506000.0,5751.2
432000.0,5506000.0,5638.199999999999
433000.0,5506000.0,5450.799999999999
434000.0,5506000.0,5340.699999999999
435000.0,5506000.0,5522.5
436000.0,5506000.0,5671.800000000001
437000.0,5506000.0,5605.9
438000.0,5506000.0,5201.2
439000.0,5506000.0,4712.0
440000.0,5506000.0,4514.4
441000.0,5506000.0,4447.200000000001
442000.0,5506000.0,4539.5
443000.0,5506000.0,4322.799999999999
444000.0,5506000.0,4187.3
445000.0,5506000.0,4116.8
446000.0,5506000.0,3827.9
447000.0,5506000.0,3844.7000000000003
448000.0,5506000.0,3765.2999999999997
449000.0,5506000.0,3673.2999999999997
450000.0,5506000.0,3640.5
451000.0,5506000.0,3600.1
452000.0,5506000.0,3562.3
453000.0,5506000.0,3540.7999999999997
454000.0,5506000.0,3539.6
315000.0,5505000.0,4198.2
316000.0,5505000.0,5575.299999999999
317000.0,5505000.0,5527.799999999999
318000.0,5505000.0,5582.5
319000.0,5505000.0,6274.700000000001
320000.0,5505000.0,5786.2
321000.0,5505000.0,4753.3
322000.0,5505000.0,4587.200000000001
323000.0,5505000.0,4822.799999999999
324000.0,5505000.0,4003.5
325000.0,5505000.0,5105.900000000001
326000.0,5505000.0,3981.3999999999996
327000.0,5505000.0,5712.9
328000.0,5505000.0,5516.1
329000.0,5505000.0,5034.5
330000.0,5505000.0,5650.299999999999
331000.0,5505000.0,7316.6
332000.0,5505000.0,6932.3
333000.0,5505000.0,6634.700000000001
334000.0,5505000.0,6739.300000000001
335000.0,5505000.0,5769.8
336000.0,5505000.0,5185.699999999999
337000.0,5505000.0,5396.800000000001
338000.0,5505000.0,7162.1
339000.0,5505000.0,6647.7
340000.0,5505000.0,7352.4
341000.0,5505000.0,7687.200000000001
342000.0,5505000.0,8910.4
343000.0,5505000.0,9218.099999999999
344000.0,5505000.0,9533.6
345000.0,5505000.0,8478.4
346000.0,5505000.0,7805.700000000001
347000.0,5505000.0,7508.4
348000.0,5505000.0,7863.0
349000.0,5505000.0,7768.8
350000.0,5505000.0,7692.1
351000.0,5505000.0,7937.9
352000.0,5505000.0,8176.0
353000.0,5505000.0,8115.4
354000.0,5505000.0,8212.2
355000.0,5505000.0,8489.7
356000.0,5505000.0,8983.9
357000.0,5505000.0,9845.2
358000.0,5505000.0,10116.6
359000.0,5505000.0,9073.4
360000.0,5505000.0,8611.5
361000.0,5505000.0,7845.0
362000.0,5505000.0,7934.2
363000.0,5505000.0,9148.8
364000.0,5505000.0,8645.3
365000.0,5505000.0,9127.9
366000.0,5505000.0,7736.2
367000.0,5505000.0,7151.5
368000.0,5505000.0,6840.599999999999
369000.0,5505000.0,6434.200000000001
370000.0,5505000.0,6293.8
371000.0,5505000.0,6220.9
372000.0,5505000.0,6704.8
373000.0,5505000.0,5864.700000000001
374000.0,5505000.0,7020.2
375000.0,5505000.0,6875.1
376000.0,5505000.0,6792.9
377000.0,5505000.0,6347.9
378000.0,5505000.0,6822.7
379000.0,5505000.0,6844.9
380000.0,5505000.0,6051.1
381000.0,5505000.0,7547.799999999999
382000.0,5505000.0,7552.4
383000.0,5505000.0,8313.7
384000.0,5505000.0,7590.599999999999
385000.0,5505000.0,6650.4
386000.0,5505000.0,7058.4
387000.0,5505000.0,7068.199999999999
388000.0,5505000.0,7824.2
389000.0,5505000.0,6670.1
390000.0,5505000.0,6373.099999999999
391000.0,5505000.0,6351.0
392000.0,5505000.0,6068.099999999999
393000.0,5505000.0,6359.200000000001
394000.0,5505000.0,6015.799999999999
395000.0,5505000.0,6170.699999999999
396000.0,5505000.0,6364.700000000001
397000.0,5505000.0,5578.8
398000.0,5505000.0,5331.800000000001
399000.0,5505000.0,5393.0
400000.0,5505000.0,5645.4
401000.0,5505000.0,5135.299999999999
402000.0,5505000.0,5382.3
403000.0,5505000.0,4164.3
404000.0,5505000.0,5696.3
405000.0,5505000.0,5287.3
406000.0,5505000.0,5233.199999999999
407000.0,5505000.0,5217.6
408000.0,5505000.0,5885.799999999999
409000.0,5505000.0,5653.9
410000.0,5505000.0,4755.2
411000.0,5505000.0,4845.0
412000.0,5505000.0,5557.7
413000.0,5505000.0,5370.299999999999
414000.0,5505000.0,4495.299999999999
415000.0,5505000.0,5011.0
416000.0,5505000.0,5646.900000000001
417000.0,5505000.0,5896.0
418000.0,5505000.0,4992.799999999999
419000.0,5505000.0,6314.200000000001
420000.0,5505000.0,5736.900000000001
421000.0,5505000.0,6332.799999999999
422000.0,5505000.0,6218.0
423000.0,5505000.0,6405.599999999999
424000.0,5505000.0,5999.400000000001
425000.0,5505000.0,5195.599999999999
426000.0,5505000.0,5562.0
427000.0,5505000.0,5984.9
428000.0,5505000.0,5961.4
429000.0,5505000.0,5864.0
430000.0,5505000.0,5759.400000000001
431000.0,5505000.0,5697.4
432000.0,5505000.0,5679.6
433000.0,5505000.0,5573.8
434000.0,5505000.0,5534.400000000001
435000.0,5505000.0,5696.700000000001
436000.0,5505000.0,5624.1
437000.0,5505000.0,5461.1
438000.0,5505000.0,5241.800000000001
439000.0,5505000.0,4821.599999999999
440000.0,5505000.0,4717.4
441000.0,5505000.0,4384.9
442000.0,5505000.0,4271.3
443000.0,5505000.0,4172.3
444000.0,5505000.0,4276.4
445000.0,5505000.0,4352.3
446000.0,5505000.0,4142.9
447000.0,5505000.0,4160.7
448000.0,5505000.0,4027.8999999999996
449000.0,5505000.0,3863.0
450000.0,5505000.0,3944.3
451000.0,5505000.0,3580.7
452000.0,5505000.0,3557.0
453000.0,5505000.0,3542.7999999999997
316000.0,5504000.0,5700.4
317000.0,5504000.0,5814.400000000001
318000.0,5504000.0,6218.6
319000.0,5504000.0,5912.6
320000.0,5504000.0,5915.0
321000.0,5504000.0,6061.0
322000.0,5504000.0,4788.400000000001
323000.0,5504000.0,5204.6
324000.0,5504000.0,4094.7000000000003
325000.0,5504000.0,4179.5
326000.0,5504000.0,4047.2000000000003
327000.0,5504000.0,5003.2
328000.0,5504000.0,4910.0
329000.0,5504000.0,4588.7
330000.0,5504000.0,5438.9
331000.0,5504000.0,5281.4
332000.0,5504000.0,7013.299999999999
333000.0,5504000.0,6559.200000000001
334000.0,5504000.0,7001.1
335000.0,5504000.0,6743.0
336000.0,5504000.0,6225.2
337000.0,5504000.0,6614.8
338000.0,5504000.0,7414.6
339000.0,5504000.0,8069.5
340000.0,5504000.0,8547.2
341000.0,5504000.0,9168.6
342000.0,5504000.0,9148.0
343000.0,5504000.0,9088.9
344000.0,5504000.0,9081.1
345000.0,5504000.0,8140.299999999999
346000.0,5504000.0,8110.599999999999
347000.0,5504000.0,7413.7
348000.0,5504000.0,7821.599999999999
349000.0,5504000.0,7893.9
350000.0,5504000.0,7772.5
351000.0,5504000.0,7962.200000000001
352000.0,5504000.0,7909.2
353000.0,5504000.0,7869.9
354000.0,5504000.0,7827.200000000001
355000.0,5504000.0,8722.1
356000.0,5504000.0,9962.9
357000.0,5504000.0,9694.1
358000.0,5504000.0,9283.0
359000.0,5504000.0,8736.1
360000.0,5504000.0,8559.400000000001
361000.0,5504000.0,8637.5
362000.0,5504000.0,7876.0
363000.0,5504000.0,8214.400000000001
364000.0,5504000.0,8722.4
365000.0,5504000.0,7895.5
366000.0,5504000.0,7680.799999999999
367000.0,5504000.0,8094.9
368000.0,5504000.0,7474.8
369000.0,5504000.0,6915.699999999999
370000.0,5504000.0,6582.4
371000.0,5504000.0,6533.099999999999
372000.0,5504000.0,7152.1
373000.0,5504000.0,6911.700000000001
374000.0,5504000.0,6635.2
375000.0,5504000.0,6853.7
376000.0,5504000.0,6297.0
377000.0,5504000.0,6552.4
378000.0,5504000.0,7104.6
379000.0,5504000.0,7099.0
380000.0,5504000.0,7695.299999999999
381000.0,5504000.0,7390.1
382000.0,5504000.0,8320.4
383000.0,5504000.0,8439.6
384000.0,5504000.0,7999.299999999999
385000.0,5504000.0,6793.099999999999
386000.0,5504000.0,7849.6
387000.0,5504000.0,7838.7
388000.0,5504000.0,7203.099999999999
389000.0,5504000.0,6882.6
390000.0,5504000.0,6806.700000000001
391000.0,5504000.0,6658.9
392000.0,5504000.0,6720.1
393000.0,5504000.0,6077.6
394000.0,5504000.0,6260.699999999999
395000.0,5504000.0,5613.8
396000.0,5504000.0,5128.400000000001
397000.0,5504000.0,5252.5
398000.0,5504000.0,5188.400000000001
399000.0,5504000.0,6054.700000000001
400000.0,5504000.0,5372.9
401000.0,5504000.0,4695.2
402000.0,5504000.0,4632.0
403000.0,5504000.0,4390.299999999999
404000.0,5504000.0,5762.799999999999
405000.0,5504000.0,5595.2
406000.0,5504000.0,6046.2
407000.0,5504000.0,5843.7
408000.0,5504000.0,5560.2
409000.0,5504000.0,4991.1
410000.0,5504000.0,5793.7
411000.0,5504000.0,5185.4
412000.0,5504000.0,5883.099999999999
413000.0,5504000.0,4942.5
414000.0,5504000.0,5648.9
415000.0,5504000.0,5226.0
416000.0,5504000.0,5914.8
417000.0,5504000.0,5522.3
418000.0,5504000.0,5105.299999999999
419000.0,5504000.0,5603.199999999999
420000.0,5504000.0,6607.9
421000.0,5504000.0,6268.8
422000.0,5504000.0,6682.4
423000.0,5504000.0,6415.0
424000.0,5504000.0,6020.5
425000.0,5504000.0,5879.9
426000.0,5504000.0,5806.6
427000.0,5504000.0,5956.6
428000.0,5504000.0,5936.6
429000.0,5504000.0,5786.2
430000.0,5504000.0,5549.5
431000.0,5504000.0,5718.9
432000.0,5504000.0,5746.700000000001
433000.0,5504000.0,5701.1
434000.0,5504000.0,5710.9
435000.0,5504000.0,5681.4
436000.0,5504000.0,5560.4
437000.0,5504000.0,5421.900000000001
438000.0,5504000.0,5350.799999999999
439000.0,5504000.0,5145.699999999999
440000.0,5504000.0,4736.2
441000.0,5504000.0,5093.5
442000.0,5504000.0,4992.4
443000.0,5504000.0,4743.3
444000.0,5504000.0,4431.0
445000.0,5504000.0,4138.5
446000.0,5504000.0,4147.799999999999
447000.0,5504000.0,4117.200000000001
448000.0,5504000.0,4045.2999999999997
449000.0,5504000.0,4062.1000000000004
450000.0,5504000.0,3880.6
451000.0,5504000.0,3715.7999999999997
452000.0,5504000.0,3548.8
453000.0,5504000.0,3539.0999999999995
316000.0,5503000.0,4537.200000000001
317000.0,5503000.0,5915.599999999999
318000.0,5503000.0,6121.900000000001
319000.0,5503000.0,5455.799999999999
320000.0,5503000.0,5127.9
321000.0,5503000.0,6150.4
322000.0,5503000.0,4284.6
323000.0,5503000.0,4268.2
324000.0,5503000.0,4177.0
325000.0,5503000.0,5099.2
326000.0,5503000.0,4070.2999999999997
327000.0,5503000.0,5006.4
328000.0,5503000.0,5527.4
329000.0,5503000.0,5551.2
330000.0,5503000.0,5108.2
331000.0,5503000.0,6240.4
332000.0,5503000.0,7569.9
333000.0,5503000.0,7417.6
334000.0,5503000.0,7523.299999999999
335000.0,5503000.0,5885.1
336000.0,5503000.0,6339.5
337000.0,5503000.0,6686.3
338000.0,5503000.0,7492.4
339000.0,5503000.0,7475.699999999999
340000.0,5503000.0,8210.9
341000.0,5503000.0,8472.0
342000.0,5503000.0,8142.9
343000.0,5503000.0,8155.599999999999
344000.0,5503000.0,8101.900000000001
345000.0,5503000.0,7949.400000000001
346000.0,5503000.0,7704.5
347000.0,5503000.0,7886.7
348000.0,5503000.0,8072.5
349000.0,5503000.0,7947.0
350000.0,5503000.0,7630.599999999999
351000.0,5503000.0,7384.5
352000.0,5503000.0,7775.8
353000.0,5503000.0,8336.699999999999
354000.0,5503000.0,8266.6
355000.0,5503000.0,8872.8
356000.0,5503000.0,8690.9
357000.0,5503000.0,9069.9
358000.0,5503000.0,8401.2
359000.0,5503000.0,8545.9
360000.0,5503000.0,9310.4
361000.0,5503000.0,8228.7
362000.0,5503000.0,7304.6
363000.0,5503000.0,8596.4
364000.0,5503000.0,7960.5
365000.0,5503000.0,7304.400000000001
366000.0,5503000.0,7532.4
367000.0,5503000.0,7488.6
368000.0,5503000.0,7167.0
369000.0,5503000.0,6881.2
370000.0,5503000.0,6755.5
371000.0,5503000.0,7527.3
372000.0,5503000.0,6860.4
373000.0,5503000.0,6248.8
374000.0,5503000.0,5772.7
375000.0,5503000.0,6345.9
376000.0,5503000.0,5413.299999999999
377000.0,5503000.0,6598.199999999999
378000.0,5503000.0,7346.4
379000.0,5503000.0,7730.9
380000.0,5503000.0,7001.700000000001
381000.0,5503000.0,7880.700000000001
382000.0,5503000.0,7877.0
383000.0,5503000.0,8311.2
384000.0,5503000.0,8047.3
385000.0,5503000.0,7428.8
386000.0,5503000.0,6876.5
387000.0,5503000.0,7191.900000000001
388000.0,5503000.0,6971.2
389000.0,5503000.0,7234.5
390000.0,5503000.0,6853.4
391000.0,5503000.0,6612.3
392000.0,5503000.0,6754.5
393000.0,5503000.0,5525.4
394000.0,5503000.0,6257.3
395000.0,5503000.0,5776.6
396000.0,5503000.0,5035.7
397000.0,5503000.0,5982.3
398000.0,5503000.0,5949.300000000001
399000.0,5503000.0,5757.4
400000.0,5503000.0,4884.5
401000.0,5503000.0,4989.099999999999
402000.0,5503000.0,5001.0
403000.0,5503000.0,5521.900000000001
404000.0,5503000.0,6050.5
405000.0,5503000.0,5919.6
406000.0,5503000.0,5739.9
407000.0,5503000.0,6250.0
408000.0,5503000.0,6311.3
409000.0,5503000.0,5338.099999999999
410000.0,5503000.0,5441.800000000001
411000.0,5503000.0,5867.9
412000.0,5503000.0,6152.3
413000.0,5503000.0,5403.299999999999
414000.0,5503000.0,4397.1
415000.0,5503000.0,5477.6
416000.0,5503000.0,6178.4
417000.0,5503000.0,6041.3
418000.0,5503000.0,5627.9
419000.0,5503000.0,5845.799999999999
420000.0,5503000.0,6567.4
421000.0,5503000.0,6933.5
422000.0,5503000.0,6836.800000000001
423000.0,5503000.0,6393.6
424000.0,5503000.0,6575.699999999999
425000.0,5503000.0,6312.9
426000.0,5503000.0,5796.2
427000.0,5503000.0,6228.9
428000.0,5503000.0,5679.5
429000.0,5503000.0,5224.400000000001
430000.0,5503000.0,4982.1
431000.0,5503000.0,5404.8
432000.0,5503000.0,5646.0
433000.0,5503000.0,5636.1
434000.0,5503000.0,5530.699999999999
435000.0,5503000.0,5488.199999999999
436000.0,5503000.0,5446.4
437000.0,5503000.0,5509.9
438000.0,5503000.0,5358.8
439000.0,5503000.0,5266.6
440000.0,5503000.0,5136.5
441000.0,5503000.0,5390.0
442000.0,5503000.0,4921.2
443000.0,5503000.0,4693.7
444000.0,5503000.0,4425.299999999999
445000.0,5503000.0,4074.2
446000.0,5503000.0,3867.7
447000.0,5503000.0,3927.4
448000.0,5503000.0,3765.5
449000.0,5503000.0,3709.8
450000.0,5503000.0,3753.1
451000.0,5503000.0,3595.7999999999997
452000.0,5503000.0,3556.1000000000004
453000.0,5503000.0,3555.0
315000.0,5502000.0,4625.0
316000.0,5502000.0,5572.5
317000.0,5502000.0,6376.6
318000.0,5502000.0,6159.8
319000.0,5502000.0,6282.6
320000.0,5502000.0,5454.300000000001
321000.0,5502000.0,5883.6
322000.0,5502000.0,4351.4
323000.0,5502000.0,4579.0
324000.0,5502000.0,4938.7
325000.0,5502000.0,4549.700000000001
326000.0,5502000.0,4029.9
327000.0,5502000.0,5520.599999999999
328000.0,5502000.0,5468.6
329000.0,5502000.0,5771.6
330000.0,5502000.0,5469.8
331000.0,5502000.0,7603.099999999999
332000.0,5502000.0,7551.2
333000.0,5502000.0,7231.2
334000.0,5502000.0,6714.9
335000.0,5502000.0,6993.8
336000.0,5502000.0,5900.5
337000.0,5502000.0,6756.3
338000.0,5502000.0,7375.9
339000.0,5502000.0,7949.6
340000.0,5502000.0,7845.2
341000.0,5502000.0,7662.3
342000.0,5502000.0,7730.5
343000.0,5502000.0,7685.4
344000.0,5502000.0,7510.0
345000.0,5502000.0,7845.900000000001
346000.0,5502000.0,7127.799999999999
347000.0,5502000.0,7894.099999999999
348000.0,5502000.0,7982.1
349000.0,5502000.0,8345.0
350000.0,5502000.0,7910.4
351000.0,5502000.0,7724.6
352000.0,5502000.0,8152.1
353000.0,5502000.0,8620.5
354000.0,5502000.0,8345.2
355000.0,5502000.0,8017.5
356000.0,5502000.0,8185.700000000001
357000.0,5502000.0,8304.3
358000.0,5502000.0,8070.5
359000.0,5502000.0,9189.1
360000.0,5502000.0,8883.5
361000.0,5502000.0,8436.0
362000.0,5502000.0,7583.099999999999
363000.0,5502000.0,7308.299999999999
364000.0,5502000.0,7585.299999999999
365000.0,5502000.0,7289.9
366000.0,5502000.0,6749.8
367000.0,5502000.0,6657.0
368000.0,5502000.0,6521.800000000001
369000.0,5502000.0,6760.299999999999
370000.0,5502000.0,7253.9
371000.0,5502000.0,7218.4
372000.0,5502000.0,7339.1
373000.0,5502000.0,6945.699999999999
374000.0,5502000.0,6242.0
375000.0,5502000.0,5927.7
376000.0,5502000.0,6890.699999999999
377000.0,5502000.0,7089.5
378000.0,5502000.0,7005.0
379000.0,5502000.0,7236.700000000001
380000.0,5502000.0,7469.6
381000.0,5502000.0,8184.099999999999
382000.0,5502000.0,8416.4
383000.0,5502000.0,8151.5
384000.0,5502000.0,7644.400000000001
385000.0,5502000.0,7108.7
386000.0,5502000.0,6531.3
387000.0,5502000.0,6698.8
388000.0,5502000.0,7236.2
389000.0,5502000.0,6927.5
390000.0,5502000.0,6355.2
391000.0,5502000.0,6396.4
392000.0,5502000.0,6937.4
393000.0,5502000.0,5990.599999999999
394000.0,5502000.0,6103.4
395000.0,5502000.0,5780.5
396000.0,5502000.0,5607.4
397000.0,5502000.0,5181.3
398000.0,5502000.0,5153.6
399000.0,5502000.0,4595.8
400000.0,5502000.0,4997.5
401000.0,5502000.0,5497.6
402000.0,5502000.0,4794.2
403000.0,5502000.0,5004.8
404000.0,5502000.0,5827.200000000001
405000.0,5502000.0,6181.4
406000.0,5502000.0,6000.299999999999
407000.0,5502000.0,5909.300000000001
408000.0,5502000.0,5517.6
409000.0,5502000.0,5381.3
410000.0,5502000.0,5190.900000000001
411000.0,5502000.0,5336.2
412000.0,5502000.0,6486.900000000001
413000.0,5502000.0,6485.799999999999
414000.0,5502000.0,5329.400000000001
415000.0,5502000.0,5430.0
416000.0,5502000.0,5583.299999999999
417000.0,5502000.0,5772.200000000001
418000.0,5502000.0,5451.4
419000.0,5502000.0,5796.6
420000.0,5502000.0,6094.5
421000.0,5502000.0,6178.199999999999
422000.0,5502000.0,7170.699999999999
423000.0,5502000.0,7181.900000000001
424000.0,5502000.0,6367.0
425000.0,5502000.0,6585.9
426000.0,5502000.0,6391.5
427000.0,5502000.0,6360.4
428000.0,5502000.0,5736.3
429000.0,5502000.0,5073.3
430000.0,5502000.0,4900.5
431000.0,5502000.0,5199.700000000001
432000.0,5502000.0,4740.299999999999
433000.0,5502000.0,5075.0
434000.0,5502000.0,5479.5
435000.0,5502000.0,4993.400000000001
436000.0,5502000.0,5590.5
437000.0,5502000.0,5506.3
438000.0,5502000.0,5483.8
439000.0,5502000.0,5443.9
440000.0,5502000.0,5284.400000000001
441000.0,5502000.0,5356.5
442000.0,5502000.0,4851.4
443000.0,5502000.0,4414.099999999999
444000.0,5502000.0,4261.8
445000.0,5502000.0,4015.2999999999997
446000.0,5502000.0,3947.7
447000.0,5502000.0,3834.8
448000.0,5502000.0,3729.6
449000.0,5502000.0,3684.3
450000.0,5502000.0,3670.2999999999997
451000.0,5502000.0,3806.3
452000.0,5502000.0,3558.6000000000004
453000.0,5502000.0,3563.1
315000.0,5501000.0,5401.6
316000.0,5501000.0,6271.2
317000.0,5501000.0,6297.9
318000.0,5501000.0,6378.099999999999
319000.0,5501000.0,6517.5
320000.0,5501000.0,5460.2
321000.0,5501000.0,5323.6
322000.0,5501000.0,5208.9
323000.0,5501000.0,4398.3
324000.0,5501000.0,5098.9
325000.0,5501000.0,4082.6
326000.0,5501000.0,5457.4
327000.0,5501000.0,6542.3
328000.0,5501000.0,7017.6
329000.0,5501000.0,6698.7
330000.0,5501000.0,6683.5
331000.0,5501000.0,7268.8
332000.0,5501000.0,7035.599999999999
333000.0,5501000.0,7199.6
334000.0,5501000.0,6528.8
335000.0,5501000.0,5874.700000000001
336000.0,5501000.0,6240.4
337000.0,5501000.0,7659.8
338000.0,5501000.0,7593.6
339000.0,5501000.0,7866.799999999999
340000.0,5501000.0,7480.5
341000.0,5501000.0,7692.7
342000.0,5501000.0,7598.0
343000.0,5501000.0,7378.7
344000.0,5501000.0,7844.700000000001
345000.0,5501000.0,7646.1
346000.0,5501000.0,7121.1
347000.0,5501000.0,7629.1
348000.0,5501000.0,8223.099999999999
349000.0,5501000.0,7986.2
350000.0,5501000.0,7700.5
351000.0,5501000.0,7721.2
352000.0,5501000.0,8703.5
353000.0,5501000.0,8246.6
354000.0,5501000.0,8521.3
355000.0,5501000.0,7252.5
356000.0,5501000.0,8278.9
357000.0,5501000.0,8231.900000000001
358000.0,5501000.0,9103.7
359000.0,5501000.0,8796.900000000001
360000.0,5501000.0,9087.5
361000.0,5501000.0,8377.7
362000.0,5501000.0,7670.599999999999
363000.0,5501000.0,6828.0
364000.0,5501000.0,7223.099999999999
365000.0,5501000.0,7191.700000000001
366000.0,5501000.0,6758.6
367000.0,5501000.0,6593.299999999999
368000.0,5501000.0,6442.0
369000.0,5501000.0,7149.400000000001
370000.0,5501000.0,6987.7
371000.0,5501000.0,7249.300000000001
372000.0,5501000.0,6656.6
373000.0,5501000.0,6738.0
374000.0,5501000.0,6009.9
375000.0,5501000.0,7143.0
376000.0,5501000.0,7068.8
377000.0,5501000.0,7094.200000000001
378000.0,5501000.0,6972.7
379000.0,5501000.0,7443.199999999999
380000.0,5501000.0,7516.3
381000.0,5501000.0,7793.6
382000.0,5501000.0,7452.1
383000.0,5501000.0,7874.6
384000.0,5501000.0,7030.299999999999
385000.0,5501000.0,6681.2
386000.0,5501000.0,6626.700000000001
387000.0,5501000.0,6800.299999999999
388000.0,5501000.0,7049.400000000001
389000.0,5501000.0,7201.5
390000.0,5501000.0,6796.0
391000.0,5501000.0,7040.0
392000.0,5501000.0,7035.299999999999
393000.0,5501000.0,6104.5
394000.0,5501000.0,5828.6
395000.0,5501000.0,5543.0
396000.0,5501000.0,5498.9
397000.0,5501000.0,4498.3
398000.0,5501000.0,4697.799999999999
399000.0,5501000.0,5235.299999999999
400000.0,5501000.0,5142.4
401000.0,5501000.0,5591.6
402000.0,5501000.0,5344.8
403000.0,5501000.0,5669.400000000001
404000.0,5501000.0,6175.1
405000.0,5501000.0,6051.900000000001
406000.0,5501000.0,6742.5
407000.0,5501000.0,6889.300000000001
408000.0,5501000.0,5774.8
409000.0,5501000.0,5949.1
410000.0,5501000.0,6206.3
411000.0,5501000.0,5946.700000000001
412000.0,5501000.0,6580.0
413000.0,5501000.0,7295.9
414000.0,5501000.0,6036.6
415000.0,5501000.0,4526.599999999999
416000.0,5501000.0,5511.2
417000.0,5501000.0,5830.799999999999
418000.0,5501000.0,5414.300000000001
419000.0,5501000.0,6380.9
420000.0,5501000.0,6465.4
421000.0,5501000.0,7126.6
422000.0,5501000.0,7247.6
423000.0,5501000.0,6603.7
424000.0,5501000.0,6675.4
425000.0,5501000.0,6563.0
426000.0,5501000.0,6766.1
427000.0,5501000.0,6353.7
428000.0,5501000.0,5527.7
429000.0,5501000.0,5250.9
430000.0,5501000.0,5105.7
431000.0,5501000.0,5581.2
432000.0,5501000.0,5437.1
433000.0,5501000.0,4833.6
434000.0,5501000.0,4631.7
435000.0,5501000.0,4635.2
436000.0,5501000.0,5177.799999999999
437000.0,5501000.0,5391.1
438000.0,5501000.0,5464.700000000001
439000.0,5501000.0,5394.200000000001
440000.0,5501000.0,5320.599999999999
441000.0,5501000.0,5333.4
442000.0,5501000.0,4481.9
443000.0,5501000.0,4332.1
444000.0,5501000.0,4056.9
445000.0,5501000.0,3927.6
446000.0,5501000.0,3938.7
447000.0,5501000.0,3829.9
448000.0,5501000.0,3985.1
449000.0,5501000.0,3979.0
450000.0,5501000.0,4124.099999999999
451000.0,5501000.0,3876.8
452000.0,5501000.0,3574.7000000000003
453000.0,5501000.0,3559.4
454000.0,5501000.0,3569.3
314000.0,5500000.0,4085.6
315000.0,5500000.0,5599.9
316000.0,5500000.0,6350.699999999999
317000.0,5500000.0,6318.299999999999
318000.0,5500000.0,6236.2
319000.0,5500000.0,6004.0
320000.0,5500000.0,5299.300000000001
321000.0,5500000.0,6157.1
322000.0,5500000.0,5277.6
323000.0,5500000.0,4902.200000000001
324000.0,5500000.0,4531.9
325000.0,5500000.0,4072.7999999999997
326000.0,5500000.0,5905.2
327000.0,5500000.0,6607.3
328000.0,5500000.0,7231.0
329000.0,5500000.0,7307.6
330000.0,5500000.0,7468.099999999999
331000.0,5500000.0,7772.9
332000.0,5500000.0,7174.8
333000.0,5500000.0,7079.9
334000.0,5500000.0,7313.5
335000.0,5500000.0,5731.6
336000.0,5500000.0,7588.7
337000.0,5500000.0,7255.4
338000.0,5500000.0,7827.4
339000.0,5500000.0,7673.5
340000.0,5500000.0,7358.7
341000.0,5500000.0,7058.199999999999
342000.0,5500000.0,7407.3
343000.0,5500000.0,7519.5
344000.0,5500000.0,7706.900000000001
345000.0,5500000.0,7637.799999999999
346000.0,5500000.0,6893.299999999999
347000.0,5500000.0,8020.299999999999
348000.0,5500000.0,7394.700000000001
349000.0,5500000.0,7660.4
350000.0,5500000.0,7342.5
351000.0,5500000.0,7556.900000000001
352000.0,5500000.0,8449.199999999999
353000.0,5500000.0,7831.599999999999
355000.0,5500000.0,7166.6
356000.0,5500000.0,7625.5
357000.0,5500000.0,9249.1
359000.0,5500000.0,8162.4
360000.0,5500000.0,8288.7
361000.0,5500000.0,7866.1
362000.0,5500000.0,7303.4
363000.0,5500000.0,6829.5
364000.0,5500000.0,6585.299999999999
365000.0,5500000.0,6976.5
366000.0,5500000.0,6957.9
367000.0,5500000.0,6345.4
368000.0,5500000.0,6961.900000000001
369000.0,5500000.0,6881.700000000001
370000.0,5500000.0,6905.799999999999
371000.0,5500000.0,7343.4
372000.0,5500000.0,6817.3
373000.0,5500000.0,5920.1
374000.0,5500000.0,6849.0
375000.0,5500000.0,7334.8
376000.0,5500000.0,6900.1
377000.0,5500000.0,7051.1
378000.0,5500000.0,7503.099999999999
379000.0,5500000.0,7884.8
380000.0,5500000.0,7409.1
381000.0,5500000.0,7649.5
382000.0,5500000.0,6903.8
383000.0,5500000.0,7510.299999999999
384000.0,5500000.0,7472.4
385000.0,5500000.0,7526.700000000001
386000.0,5500000.0,6935.599999999999
387000.0,5500000.0,5889.300000000001
388000.0,5500000.0,7343.4
389000.0,5500000.0,7137.1
390000.0,5500000.0,7131.900000000001
391000.0,5500000.0,6857.0
392000.0,5500000.0,6360.0
393000.0,5500000.0,5978.7
394000.0,5500000.0,5907.7
395000.0,5500000.0,5686.1
396000.0,5500000.0,4889.9
397000.0,5500000.0,4360.5
