x,y,z
717000.0,5859000.0,2911.6000000000004
718000.0,5859000.0,2912.6
631000.0,5858000.0,2917.9
632000.0,5858000.0,3006.0
633000.0,5858000.0,2948.7
634000.0,5858000.0,2944.0
635000.0,5858000.0,2986.9
636000.0,5858000.0,2934.7000000000003
637000.0,5858000.0,3085.1
638000.0,5858000.0,3042.4
639000.0,5858000.0,3125.1
640000.0,5858000.0,2979.9
641000.0,5858000.0,2973.1
642000.0,5858000.0,2885.5
643000.0,5858000.0,2916.5
644000.0,5858000.0,2906.0
645000.0,5858000.0,2857.0
646000.0,5858000.0,2855.6
647000.0,5858000.0,2867.9
648000.0,5858000.0,2891.9
649000.0,5858000.0,2960.8999999999996
650000.0,5858000.0,2971.2
651000.0,5858000.0,2992.7
652000.0,5858000.0,2967.7
653000.0,5858000.0,2930.8999999999996
654000.0,5858000.0,2925.6
655000.0,5858000.0,2938.8999999999996
656000.0,5858000.0,2903.3999999999996
657000.0,5858000.0,2921.8
658000.0,5858000.0,2937.9
659000.0,5858000.0,2894.6
660000.0,5858000.0,2934.3
661000.0,5858000.0,2951.2
662000.0,5858000.0,2951.1000000000004
663000.0,5858000.0,2919.5
664000.0,5858000.0,2927.6
665000.0,5858000.0,2932.0
666000.0,5858000.0,2940.0
667000.0,5858000.0,2949.9
668000.0,5858000.0,2979.8
669000.0,5858000.0,3011.3
670000.0,5858000.0,3184.4
671000.0,5858000.0,3036.3
672000.0,5858000.0,2968.7
673000.0,5858000.0,2970.9000000000005
674000.0,5858000.0,2999.9
675000.0,5858000.0,3025.6
676000.0,5858000.0,2929.1000000000004
677000.0,5858000.0,2957.2000000000003
678000.0,5858000.0,3039.4
679000.0,5858000.0,3095.7
680000.0,5858000.0,3193.4000000000005
681000.0,5858000.0,3255.7
682000.0,5858000.0,3310.9000000000005
683000.0,5858000.0,3324.8
684000.0,5858000.0,2898.2999999999997
685000.0,5858000.0,2865.7999999999997
686000.0,5858000.0,2854.5
687000.0,5858000.0,2867.4
688000.0,5858000.0,2867.6
689000.0,5858000.0,2860.2
690000.0,5858000.0,2865.2
691000.0,5858000.0,2868.7
692000.0,5858000.0,2869.3
693000.0,5858000.0,2872.9
694000.0,5858000.0,2871.9
695000.0,5858000.0,2876.6000000000004
696000.0,5858000.0,2878.2
697000.0,5858000.0,2890.1
698000.0,5858000.0,2892.5
699000.0,5858000.0,2890.6
700000.0,5858000.0,2892.6
701000.0,5858000.0,2899.6
702000.0,5858000.0,2902.9
703000.0,5858000.0,2903.6000000000004
704000.0,5858000.0,2917.2000000000003
705000.0,5858000.0,2902.1
706000.0,5858000.0,2897.4
707000.0,5858000.0,3093.0
708000.0,5858000.0,3124.9
709000.0,5858000.0,3120.9000000000005
710000.0,5858000.0,2917.1
711000.0,5858000.0,2912.2000000000003
712000.0,5858000.0,2912.6
713000.0,5858000.0,2901.8
714000.0,5858000.0,2919.6
715000.0,5858000.0,2902.7
716000.0,5858000.0,2909.3
717000.0,5858000.0,2910.2
718000.0,5858000.0,2909.1000000000004
624000.0,5857000.0,3291.3
625000.0,5857000.0,3282.4
626000.0,5857000.0,3101.0
628000.0,5857000.0,3049.4
629000.0,5857000.0,3120.9000000000005
630000.0,5857000.0,3019.6
631000.0,5857000.0,2966.7000000000003
632000.0,5857000.0,2961.3999999999996
633000.0,5857000.0,2930.8999999999996
634000.0,5857000.0,2975.1
635000.0,5857000.0,2931.3
636000.0,5857000.0,2933.2
637000.0,5857000.0,3017.0
638000.0,5857000.0,3052.6
639000.0,5857000.0,3085.1
640000.0,5857000.0,2954.5
641000.0,5857000.0,2890.1
642000.0,5857000.0,2905.7999999999997
643000.0,5857000.0,2900.6
644000.0,5857000.0,2881.9
645000.0,5857000.0,2863.8999999999996
646000.0,5857000.0,2880.2999999999997
647000.0,5857000.0,2922.5
648000.0,5857000.0,2978.8
649000.0,5857000.0,3060.9000000000005
650000.0,5857000.0,3111.7000000000003
651000.0,5857000.0,3063.4000000000005
652000.0,5857000.0,3008.4000000000005
653000.0,5857000.0,3000.9000000000005
654000.0,5857000.0,2996.8
655000.0,5857000.0,3022.0
656000.0,5857000.0,2951.3999999999996
657000.0,5857000.0,2914.5
658000.0,5857000.0,2953.2
659000.0,5857000.0,2898.1
660000.0,5857000.0,2936.1000000000004
661000.0,5857000.0,2914.8
662000.0,5857000.0,2949.2000000000003
663000.0,5857000.0,2923.0
664000.0,5857000.0,2923.7
665000.0,5857000.0,2932.2000000000003
666000.0,5857000.0,2944.6
667000.0,5857000.0,2958.3999999999996
668000.0,5857000.0,2983.7
669000.0,5857000.0,3015.9000000000005
670000.0,5857000.0,3077.9
671000.0,5857000.0,3008.5
672000.0,5857000.0,2947.6
673000.0,5857000.0,3028.6000000000004
674000.0,5857000.0,2985.0
675000.0,5857000.0,2978.0
676000.0,5857000.0,2938.3999999999996
677000.0,5857000.0,2924.0
678000.0,5857000.0,3038.6000000000004
679000.0,5857000.0,3134.7000000000003
680000.0,5857000.0,3187.4
681000.0,5857000.0,3219.8
682000.0,5857000.0,3310.7
683000.0,5857000.0,3350.5
684000.0,5857000.0,2899.6
685000.0,5857000.0,2858.5
686000.0,5857000.0,2861.2
687000.0,5857000.0,2870.2
688000.0,5857000.0,2858.1
689000.0,5857000.0,2865.0
690000.0,5857000.0,2863.8999999999996
691000.0,5857000.0,2865.1
692000.0,5857000.0,2869.3
693000.0,5857000.0,2872.1
694000.0,5857000.0,2876.7000000000003
695000.0,5857000.0,2877.9
696000.0,5857000.0,2879.4
697000.0,5857000.0,2879.7000000000003
698000.0,5857000.0,2884.4
699000.0,5857000.0,2891.2
700000.0,5857000.0,2894.7000000000003
701000.0,5857000.0,2902.5
702000.0,5857000.0,2906.9
703000.0,5857000.0,2907.0
704000.0,5857000.0,2902.2000000000003
705000.0,5857000.0,2909.3
706000.0,5857000.0,2894.8
707000.0,5857000.0,2888.7
708000.0,5857000.0,2895.6
709000.0,5857000.0,2900.2999999999997
710000.0,5857000.0,2891.1000000000004
711000.0,5857000.0,2889.1000000000004
712000.0,5857000.0,2891.8
713000.0,5857000.0,2899.5
714000.0,5857000.0,2901.2
715000.0,5857000.0,2895.7
716000.0,5857000.0,2897.0
717000.0,5857000.0,2907.7999999999997
718000.0,5857000.0,2907.0
619000.0,5856000.0,3375.5
620000.0,5856000.0,3418.1
621000.0,5856000.0,3548.2999999999997
622000.0,5856000.0,3514.3
623000.0,5856000.0,3459.6
624000.0,5856000.0,3334.6
625000.0,5856000.0,3250.6
626000.0,5856000.0,3191.0
627000.0,5856000.0,3322.7
628000.0,5856000.0,3336.3
629000.0,5856000.0,3273.2
630000.0,5856000.0,3233.7
631000.0,5856000.0,3072.5
632000.0,5856000.0,3083.8999999999996
633000.0,5856000.0,2976.2
634000.0,5856000.0,2957.1
635000.0,5856000.0,2943.7
636000.0,5856000.0,2928.1
637000.0,5856000.0,3000.7999999999997
638000.0,5856000.0,3016.7000000000003
639000.0,5856000.0,3010.2999999999997
640000.0,5856000.0,2911.3999999999996
641000.0,5856000.0,2983.6000000000004
642000.0,5856000.0,2954.1000000000004
643000.0,5856000.0,2938.2
644000.0,5856000.0,2922.4
645000.0,5856000.0,2948.6000000000004
646000.0,5856000.0,2854.3
647000.0,5856000.0,2917.7999999999997
648000.0,5856000.0,3009.8
649000.0,5856000.0,3129.6
650000.0,5856000.0,3134.0
651000.0,5856000.0,3067.7
652000.0,5856000.0,3048.4000000000005
653000.0,5856000.0,3063.1
654000.0,5856000.0,3018.8
655000.0,5856000.0,2970.7999999999997
656000.0,5856000.0,2949.2000000000003
657000.0,5856000.0,2956.3
658000.0,5856000.0,2918.7
659000.0,5856000.0,2917.5
660000.0,5856000.0,2921.3999999999996
661000.0,5856000.0,2950.8999999999996
662000.0,5856000.0,2944.6
663000.0,5856000.0,2929.9
664000.0,5856000.0,2944.6
665000.0,5856000.0,2985.1
666000.0,5856000.0,2981.8
667000.0,5856000.0,2975.7999999999997
668000.0,5856000.0,2993.5
669000.0,5856000.0,3024.6
670000.0,5856000.0,3049.0999999999995
671000.0,5856000.0,2979.2000000000003
672000.0,5856000.0,2960.5
673000.0,5856000.0,3030.9000000000005
674000.0,5856000.0,3037.2000000000003
675000.0,5856000.0,2978.7
676000.0,5856000.0,2965.1
677000.0,5856000.0,2923.5
678000.0,5856000.0,3009.0
679000.0,5856000.0,3093.8999999999996
680000.0,5856000.0,3103.6000000000004
681000.0,5856000.0,3155.2
682000.0,5856000.0,3228.7
683000.0,5856000.0,3344.0
684000.0,5856000.0,3037.6
685000.0,5856000.0,2853.2999999999997
686000.0,5856000.0,2853.8999999999996
687000.0,5856000.0,2861.9
688000.0,5856000.0,2859.1000000000004
689000.0,5856000.0,2858.1
690000.0,5856000.0,2863.7
691000.0,5856000.0,2873.0
692000.0,5856000.0,2875.0
693000.0,5856000.0,2865.8999999999996
694000.0,5856000.0,2874.8
695000.0,5856000.0,2883.3999999999996
696000.0,5856000.0,2882.3
697000.0,5856000.0,2882.5
698000.0,5856000.0,2886.6000000000004
699000.0,5856000.0,2898.8999999999996
700000.0,5856000.0,2902.4
701000.0,5856000.0,2907.2000000000003
702000.0,5856000.0,2899.5
703000.0,5856000.0,2900.2
704000.0,5856000.0,2921.2
705000.0,5856000.0,2903.2999999999997
706000.0,5856000.0,2901.8
707000.0,5856000.0,2904.5
708000.0,5856000.0,2897.9
709000.0,5856000.0,2889.0
710000.0,5856000.0,2889.5
711000.0,5856000.0,2887.1
712000.0,5856000.0,2890.2999999999997
713000.0,5856000.0,2890.8999999999996
714000.0,5856000.0,2896.3999999999996
715000.0,5856000.0,2902.1
716000.0,5856000.0,2902.5
717000.0,5856000.0,2890.7
718000.0,5856000.0,2906.9
719000.0,5856000.0,2915.4
620000.0,5855000.0,3467.9
621000.0,5855000.0,3591.8
622000.0,5855000.0,3466.2
623000.0,5855000.0,3360.2
624000.0,5855000.0,3362.2000000000003
625000.0,5855000.0,3315.4
626000.0,5855000.0,3302.1
627000.0,5855000.0,3344.4
628000.0,5855000.0,3324.0
629000.0,5855000.0,3306.0
630000.0,5855000.0,3283.5
631000.0,5855000.0,3172.7999999999997
632000.0,5855000.0,3104.3
633000.0,5855000.0,3030.9000000000005
634000.0,5855000.0,2959.2000000000003
635000.0,5855000.0,2948.2999999999997
636000.0,5855000.0,2943.7
637000.0,5855000.0,2939.2000000000003
638000.0,5855000.0,2960.0
639000.0,5855000.0,2955.2999999999997
640000.0,5855000.0,3002.7999999999997
641000.0,5855000.0,3006.3999999999996
642000.0,5855000.0,3009.2000000000003
643000.0,5855000.0,2955.4
644000.0,5855000.0,2975.9000000000005
645000.0,5855000.0,2929.2000000000003
646000.0,5855000.0,2906.3999999999996
647000.0,5855000.0,2872.3
648000.0,5855000.0,2912.5
649000.0,5855000.0,2960.2999999999997
650000.0,5855000.0,3036.3
651000.0,5855000.0,3010.1
652000.0,5855000.0,2979.8
653000.0,5855000.0,2958.5
654000.0,5855000.0,2985.1
655000.0,5855000.0,2998.4000000000005
656000.0,5855000.0,3011.9
657000.0,5855000.0,2967.5
658000.0,5855000.0,2935.8999999999996
659000.0,5855000.0,2942.0
660000.0,5855000.0,2984.0
661000.0,5855000.0,2979.0
662000.0,5855000.0,2937.7999999999997
663000.0,5855000.0,2954.5
664000.0,5855000.0,2968.2999999999997
665000.0,5855000.0,3006.3
666000.0,5855000.0,2997.7
667000.0,5855000.0,2966.8
668000.0,5855000.0,2984.8
669000.0,5855000.0,2950.8999999999996
670000.0,5855000.0,2934.8
671000.0,5855000.0,2930.0
672000.0,5855000.0,2939.7000000000003
673000.0,5855000.0,2962.2000000000003
674000.0,5855000.0,2966.6000000000004
675000.0,5855000.0,2933.2999999999997
676000.0,5855000.0,2921.1000000000004
677000.0,5855000.0,2953.8999999999996
678000.0,5855000.0,2982.7999999999997
679000.0,5855000.0,3075.7999999999997
680000.0,5855000.0,3108.0
681000.0,5855000.0,3052.9
682000.0,5855000.0,3053.7
683000.0,5855000.0,3087.2000000000003
684000.0,5855000.0,3015.9000000000005
685000.0,5855000.0,2883.6000000000004
686000.0,5855000.0,2864.2000000000003
687000.0,5855000.0,2863.7
688000.0,5855000.0,2892.9
689000.0,5855000.0,2902.1
690000.0,5855000.0,2882.6
691000.0,5855000.0,2871.7000000000003
692000.0,5855000.0,2878.3999999999996
693000.0,5855000.0,2874.8
694000.0,5855000.0,2888.0
695000.0,5855000.0,2890.8999999999996
696000.0,5855000.0,2880.8999999999996
697000.0,5855000.0,2884.3
698000.0,5855000.0,2891.7000000000003
699000.0,5855000.0,2899.1000000000004
700000.0,5855000.0,2899.8
701000.0,5855000.0,2914.8
702000.0,5855000.0,2919.5
703000.0,5855000.0,2918.6000000000004
704000.0,5855000.0,2906.3
705000.0,5855000.0,2931.7000000000003
706000.0,5855000.0,2917.7999999999997
707000.0,5855000.0,2906.2
708000.0,5855000.0,2903.8
709000.0,5855000.0,2895.4
710000.0,5855000.0,2899.3
711000.0,5855000.0,2908.2999999999997
712000.0,5855000.0,2896.9
713000.0,5855000.0,2890.0
714000.0,5855000.0,2891.2
715000.0,5855000.0,2893.0
716000.0,5855000.0,2907.0
717000.0,5855000.0,2891.3999999999996
718000.0,5855000.0,2897.7
719000.0,5855000.0,2904.2000000000003
619000.0,5854000.0,3310.1
620000.0,5854000.0,3460.7999999999997
621000.0,5854000.0,3527.9
622000.0,5854000.0,3398.7
623000.0,5854000.0,3430.9000000000005
624000.0,5854000.0,3330.2
625000.0,5854000.0,3298.0
626000.0,5854000.0,3216.8
627000.0,5854000.0,3227.9
628000.0,5854000.0,3277.1
629000.0,5854000.0,3213.8
630000.0,5854000.0,3160.7
631000.0,5854000.0,3014.9
632000.0,5854000.0,3036.7000000000003
633000.0,5854000.0,3061.3
634000.0,5854000.0,2992.6
635000.0,5854000.0,2953.0
636000.0,5854000.0,2959.6
637000.0,5854000.0,2959.5
638000.0,5854000.0,2968.2
639000.0,5854000.0,2969.2000000000003
640000.0,5854000.0,3062.3
641000.0,5854000.0,3096.9
642000.0,5854000.0,3123.6000000000004
643000.0,5854000.0,3300.7
644000.0,5854000.0,3233.2
645000.0,5854000.0,3034.3
646000.0,5854000.0,2904.0
647000.0,5854000.0,2859.2000000000003
648000.0,5854000.0,2864.4
649000.0,5854000.0,2889.1000000000004
650000.0,5854000.0,2984.4
651000.0,5854000.0,2995.2999999999997
652000.0,5854000.0,2947.4
653000.0,5854000.0,3001.7000000000003
654000.0,5854000.0,3076.7000000000003
655000.0,5854000.0,3029.9
656000.0,5854000.0,3072.9
657000.0,5854000.0,2954.2000000000003
658000.0,5854000.0,2933.3999999999996
659000.0,5854000.0,2933.2
660000.0,5854000.0,2954.9
661000.0,5854000.0,2951.6000000000004
662000.0,5854000.0,2965.1
663000.0,5854000.0,3017.1
664000.0,5854000.0,3048.8
665000.0,5854000.0,3028.1
666000.0,5854000.0,2997.2000000000003
667000.0,5854000.0,3007.1
668000.0,5854000.0,3025.7
669000.0,5854000.0,3033.1
670000.0,5854000.0,2934.7000000000003
671000.0,5854000.0,2918.3999999999996
672000.0,5854000.0,2942.2000000000003
673000.0,5854000.0,2937.3
674000.0,5854000.0,2930.7999999999997
675000.0,5854000.0,2932.3
676000.0,5854000.0,2931.9
677000.0,5854000.0,2930.2
678000.0,5854000.0,2952.5
679000.0,5854000.0,2958.6000000000004
680000.0,5854000.0,2985.4
681000.0,5854000.0,2956.8
682000.0,5854000.0,2939.6
683000.0,5854000.0,2938.8999999999996
684000.0,5854000.0,3095.0
685000.0,5854000.0,3004.2000000000003
686000.0,5854000.0,2867.4
687000.0,5854000.0,2867.6
688000.0,5854000.0,2868.7
689000.0,5854000.0,2877.7
690000.0,5854000.0,2877.6
691000.0,5854000.0,2897.3
692000.0,5854000.0,2883.2999999999997
693000.0,5854000.0,2873.8
694000.0,5854000.0,2877.6
695000.0,5854000.0,2885.0
696000.0,5854000.0,2885.6
697000.0,5854000.0,2886.5
698000.0,5854000.0,2894.4
699000.0,5854000.0,2902.3
700000.0,5854000.0,2907.9
701000.0,5854000.0,2913.0
702000.0,5854000.0,2911.1000000000004
703000.0,5854000.0,2927.5
704000.0,5854000.0,2908.2
705000.0,5854000.0,2915.2999999999997
706000.0,5854000.0,2926.6000000000004
707000.0,5854000.0,2908.3999999999996
708000.0,5854000.0,2908.1
709000.0,5854000.0,2901.8
710000.0,5854000.0,2908.0
711000.0,5854000.0,2895.1
712000.0,5854000.0,2895.1
713000.0,5854000.0,2898.7
714000.0,5854000.0,2898.8999999999996
715000.0,5854000.0,2900.2999999999997
716000.0,5854000.0,2893.2999999999997
717000.0,5854000.0,2893.5
718000.0,5854000.0,2900.7
719000.0,5854000.0,2900.2
619000.0,5853000.0,3333.6000000000004
620000.0,5853000.0,3393.7
621000.0,5853000.0,3613.7
622000.0,5853000.0,3542.6
623000.0,5853000.0,3503.1
624000.0,5853000.0,3377.7999999999997
625000.0,5853000.0,3253.8
626000.0,5853000.0,3186.3
627000.0,5853000.0,3124.7000000000003
628000.0,5853000.0,3100.2
629000.0,5853000.0,3038.4000000000005
630000.0,5853000.0,3131.9
631000.0,5853000.0,3044.9
632000.0,5853000.0,3033.5
633000.0,5853000.0,2996.3999999999996
634000.0,5853000.0,2989.4
635000.0,5853000.0,2978.0
636000.0,5853000.0,2961.2
637000.0,5853000.0,2962.7
638000.0,5853000.0,2985.5
639000.0,5853000.0,3028.7
640000.0,5853000.0,3142.6
641000.0,5853000.0,3185.2999999999997
642000.0,5853000.0,3236.0
643000.0,5853000.0,3184.9
644000.0,5853000.0,3130.9000000000005
645000.0,5853000.0,2939.8
646000.0,5853000.0,2905.2
647000.0,5853000.0,2862.7999999999997
648000.0,5853000.0,2869.8
649000.0,5853000.0,2880.6
650000.0,5853000.0,2922.5
651000.0,5853000.0,2917.5
652000.0,5853000.0,3000.5
653000.0,5853000.0,3023.2
654000.0,5853000.0,3076.5999999999995
655000.0,5853000.0,3108.8
656000.0,5853000.0,3156.5999999999995
657000.0,5853000.0,3093.7
658000.0,5853000.0,3042.2000000000003
659000.0,5853000.0,2985.7999999999997
660000.0,5853000.0,2973.6000000000004
661000.0,5853000.0,3019.3
662000.0,5853000.0,3003.7
663000.0,5853000.0,3017.0
664000.0,5853000.0,2999.5
665000.0,5853000.0,3027.1
666000.0,5853000.0,3031.2
667000.0,5853000.0,3011.5999999999995
668000.0,5853000.0,2988.5
669000.0,5853000.0,3062.9
670000.0,5853000.0,2934.1000000000004
671000.0,5853000.0,2912.5
672000.0,5853000.0,2933.6000000000004
673000.0,5853000.0,2924.5
674000.0,5853000.0,2914.8
675000.0,5853000.0,2902.4
676000.0,5853000.0,2894.1000000000004
677000.0,5853000.0,2916.7000000000003
678000.0,5853000.0,2923.5
679000.0,5853000.0,2919.0
680000.0,5853000.0,2921.5
681000.0,5853000.0,2917.4
682000.0,5853000.0,2911.5
683000.0,5853000.0,2878.6000000000004
684000.0,5853000.0,2942.1
685000.0,5853000.0,2926.3
686000.0,5853000.0,2892.9
687000.0,5853000.0,2860.4
688000.0,5853000.0,2866.0
689000.0,5853000.0,2864.4
690000.0,5853000.0,2883.0
691000.0,5853000.0,2870.7999999999997
692000.0,5853000.0,2879.9
693000.0,5853000.0,2896.3
694000.0,5853000.0,2885.7999999999997
695000.0,5853000.0,2889.9
696000.0,5853000.0,2887.1
697000.0,5853000.0,2892.6
698000.0,5853000.0,2897.5
699000.0,5853000.0,2900.0
700000.0,5853000.0,2910.6
701000.0,5853000.0,2913.8999999999996
702000.0,5853000.0,2920.6
703000.0,5853000.0,2919.2000000000003
704000.0,5853000.0,2937.7999999999997
705000.0,5853000.0,2917.1
706000.0,5853000.0,2927.6
707000.0,5853000.0,2915.1
708000.0,5853000.0,2910.1
709000.0,5853000.0,2907.3
710000.0,5853000.0,2904.5
711000.0,5853000.0,2920.2999999999997
712000.0,5853000.0,2901.3
713000.0,5853000.0,2902.5
714000.0,5853000.0,2907.2000000000003
715000.0,5853000.0,2909.0
716000.0,5853000.0,2893.7
717000.0,5853000.0,2894.0
619000.0,5852000.0,3351.0
620000.0,5852000.0,3406.3999999999996
621000.0,5852000.0,3588.4000000000005
622000.0,5852000.0,3827.3
623000.0,5852000.0,3414.3
624000.0,5852000.0,3328.0
625000.0,5852000.0,3258.6000000000004
626000.0,5852000.0,3148.8999999999996
627000.0,5852000.0,3110.2
628000.0,5852000.0,3124.9
629000.0,5852000.0,3121.2
630000.0,5852000.0,3234.0999999999995
631000.0,5852000.0,3200.2999999999997
632000.0,5852000.0,3074.3
633000.0,5852000.0,3019.5
634000.0,5852000.0,2964.5
635000.0,5852000.0,2969.9
636000.0,5852000.0,2967.2000000000003
637000.0,5852000.0,2968.8
638000.0,5852000.0,3017.0
639000.0,5852000.0,3020.5
640000.0,5852000.0,3165.7
641000.0,5852000.0,3171.0
642000.0,5852000.0,3187.7999999999997
643000.0,5852000.0,3052.7999999999997
644000.0,5852000.0,3021.0
645000.0,5852000.0,3066.8
646000.0,5852000.0,2972.2000000000003
647000.0,5852000.0,2869.1000000000004
648000.0,5852000.0,2869.0
649000.0,5852000.0,2878.3999999999996
650000.0,5852000.0,2903.2999999999997
651000.0,5852000.0,2915.7
652000.0,5852000.0,2998.1
653000.0,5852000.0,3045.0
654000.0,5852000.0,3009.9
655000.0,5852000.0,3040.7
656000.0,5852000.0,3071.9
657000.0,5852000.0,3040.6
658000.0,5852000.0,3014.9
659000.0,5852000.0,3017.0
660000.0,5852000.0,2978.1
661000.0,5852000.0,2999.5
662000.0,5852000.0,3063.1
663000.0,5852000.0,3068.5
664000.0,5852000.0,3033.8999999999996
665000.0,5852000.0,3036.8
666000.0,5852000.0,3038.6000000000004
667000.0,5852000.0,3040.1
668000.0,5852000.0,3037.3
669000.0,5852000.0,2947.2000000000003
670000.0,5852000.0,2930.7
671000.0,5852000.0,2918.1
672000.0,5852000.0,2931.9
673000.0,5852000.0,2967.4
674000.0,5852000.0,2942.4
675000.0,5852000.0,2908.2999999999997
676000.0,5852000.0,2913.0
677000.0,5852000.0,2905.2
678000.0,5852000.0,2899.3
679000.0,5852000.0,2903.2
680000.0,5852000.0,2892.4
681000.0,5852000.0,2890.8999999999996
682000.0,5852000.0,2884.6
683000.0,5852000.0,2896.1000000000004
684000.0,5852000.0,2900.2
685000.0,5852000.0,2909.8
686000.0,5852000.0,2900.7
687000.0,5852000.0,2866.6000000000004
688000.0,5852000.0,2867.4
689000.0,5852000.0,2865.5
690000.0,5852000.0,2872.6
691000.0,5852000.0,2871.2
692000.0,5852000.0,2876.0
693000.0,5852000.0,2878.1
694000.0,5852000.0,2898.2999999999997
695000.0,5852000.0,2874.4
696000.0,5852000.0,2896.9
697000.0,5852000.0,2909.0
698000.0,5852000.0,2899.0
699000.0,5852000.0,2903.1
700000.0,5852000.0,2904.0
701000.0,5852000.0,2909.2000000000003
702000.0,5852000.0,2912.3
703000.0,5852000.0,2914.4
704000.0,5852000.0,2958.0
705000.0,5852000.0,2932.4
706000.0,5852000.0,2922.9
707000.0,5852000.0,2913.8999999999996
708000.0,5852000.0,2912.7
709000.0,5852000.0,2912.7999999999997
710000.0,5852000.0,2901.8
711000.0,5852000.0,2899.6
712000.0,5852000.0,2904.3
713000.0,5852000.0,2902.3
714000.0,5852000.0,2899.7000000000003
715000.0,5852000.0,2903.2
716000.0,5852000.0,2896.7000000000003
619000.0,5851000.0,3376.5
620000.0,5851000.0,3537.1
621000.0,5851000.0,3646.7000000000003
622000.0,5851000.0,3749.5
623000.0,5851000.0,3466.8
624000.0,5851000.0,3381.2
625000.0,5851000.0,3189.4
626000.0,5851000.0,3138.4000000000005
627000.0,5851000.0,3132.6
628000.0,5851000.0,3096.0
629000.0,5851000.0,3226.8
630000.0,5851000.0,3189.3
631000.0,5851000.0,3181.8
632000.0,5851000.0,3178.5
633000.0,5851000.0,3073.4000000000005
634000.0,5851000.0,2997.7
635000.0,5851000.0,2989.0999999999995
636000.0,5851000.0,2982.7
637000.0,5851000.0,2992.5
638000.0,5851000.0,3040.2999999999997
639000.0,5851000.0,3036.7000000000003
640000.0,5851000.0,3115.5
641000.0,5851000.0,3203.2
642000.0,5851000.0,3159.4
643000.0,5851000.0,3056.5
644000.0,5851000.0,3015.2
645000.0,5851000.0,2895.5
646000.0,5851000.0,2889.8
647000.0,5851000.0,2874.6
648000.0,5851000.0,2872.5
649000.0,5851000.0,2956.0
650000.0,5851000.0,2963.7
651000.0,5851000.0,2996.3999999999996
652000.0,5851000.0,3060.6
653000.0,5851000.0,3082.5
654000.0,5851000.0,3083.1
655000.0,5851000.0,3049.7000000000003
656000.0,5851000.0,3126.5999999999995
657000.0,5851000.0,3139.7000000000003
658000.0,5851000.0,3118.5
659000.0,5851000.0,3104.9
660000.0,5851000.0,3063.7
661000.0,5851000.0,3003.8999999999996
662000.0,5851000.0,3063.2999999999997
663000.0,5851000.0,2998.2999999999997
664000.0,5851000.0,3004.5
665000.0,5851000.0,2966.0
666000.0,5851000.0,2991.9
667000.0,5851000.0,3006.5
668000.0,5851000.0,2920.2
669000.0,5851000.0,2925.2
670000.0,5851000.0,2922.0
671000.0,5851000.0,2919.6
672000.0,5851000.0,2928.7
673000.0,5851000.0,2939.3
674000.0,5851000.0,2920.0
675000.0,5851000.0,2913.7
676000.0,5851000.0,2897.7999999999997
677000.0,5851000.0,2921.1000000000004
678000.0,5851000.0,2915.5
679000.0,5851000.0,2911.7000000000003
680000.0,5851000.0,2889.9
681000.0,5851000.0,2892.5
682000.0,5851000.0,2917.7
683000.0,5851000.0,2908.1
684000.0,5851000.0,2916.8
685000.0,5851000.0,2914.4
686000.0,5851000.0,2916.1000000000004
687000.0,5851000.0,2885.5
688000.0,5851000.0,2875.2999999999997
689000.0,5851000.0,2873.3999999999996
690000.0,5851000.0,2874.1000000000004
691000.0,5851000.0,2880.8999999999996
692000.0,5851000.0,2882.2000000000003
693000.0,5851000.0,2887.6
694000.0,5851000.0,2894.0
695000.0,5851000.0,2892.4
696000.0,5851000.0,2895.5
697000.0,5851000.0,2891.8
698000.0,5851000.0,2898.7
699000.0,5851000.0,2903.2999999999997
700000.0,5851000.0,2902.4
701000.0,5851000.0,2906.6000000000004
702000.0,5851000.0,2908.5
703000.0,5851000.0,2919.8
704000.0,5851000.0,2924.8
705000.0,5851000.0,2933.2
706000.0,5851000.0,2923.2999999999997
707000.0,5851000.0,2929.8
708000.0,5851000.0,2911.2
709000.0,5851000.0,2901.1000000000004
710000.0,5851000.0,2915.8999999999996
711000.0,5851000.0,2910.7999999999997
712000.0,5851000.0,2907.6
713000.0,5851000.0,2901.5
714000.0,5851000.0,2916.3
715000.0,5851000.0,2906.7000000000003
716000.0,5851000.0,2895.2999999999997
619000.0,5850000.0,3399.0999999999995
620000.0,5850000.0,3434.0
621000.0,5850000.0,3521.9
622000.0,5850000.0,3630.7
623000.0,5850000.0,3405.7999999999997
624000.0,5850000.0,3237.5
625000.0,5850000.0,3245.4
626000.0,5850000.0,3257.5
627000.0,5850000.0,3208.1
628000.0,5850000.0,3175.6
629000.0,5850000.0,3180.5
630000.0,5850000.0,3204.0999999999995
631000.0,5850000.0,3173.8
632000.0,5850000.0,3131.0
633000.0,5850000.0,3071.2
634000.0,5850000.0,3009.3
635000.0,5850000.0,2990.5
636000.0,5850000.0,2996.7000000000003
637000.0,5850000.0,3023.5
638000.0,5850000.0,3038.4000000000005
639000.0,5850000.0,3113.8999999999996
640000.0,5850000.0,3171.2
641000.0,5850000.0,3121.9
642000.0,5850000.0,2969.4
643000.0,5850000.0,2963.1
644000.0,5850000.0,2893.5
645000.0,5850000.0,2980.7
646000.0,5850000.0,2965.8999999999996
647000.0,5850000.0,2894.7000000000003
648000.0,5850000.0,2872.6
649000.0,5850000.0,2995.2999999999997
650000.0,5850000.0,3052.1
651000.0,5850000.0,3024.4
652000.0,5850000.0,3095.6
653000.0,5850000.0,3142.2000000000003
654000.0,5850000.0,3171.0
655000.0,5850000.0,3129.0999999999995
656000.0,5850000.0,3124.0999999999995
657000.0,5850000.0,3189.0999999999995
658000.0,5850000.0,3181.5999999999995
659000.0,5850000.0,3161.8
660000.0,5850000.0,3146.2
661000.0,5850000.0,3062.7999999999997
662000.0,5850000.0,3011.0
663000.0,5850000.0,2985.7999999999997
664000.0,5850000.0,2953.0
665000.0,5850000.0,2940.7
666000.0,5850000.0,2923.1
667000.0,5850000.0,2921.6000000000004
668000.0,5850000.0,2920.7
669000.0,5850000.0,2924.1000000000004
670000.0,5850000.0,2922.9
671000.0,5850000.0,2924.0
672000.0,5850000.0,2934.7000000000003
673000.0,5850000.0,2943.3999999999996
674000.0,5850000.0,2914.3
675000.0,5850000.0,2909.1000000000004
676000.0,5850000.0,2917.2000000000003
677000.0,5850000.0,2913.7
678000.0,5850000.0,2923.5
679000.0,5850000.0,2904.3
680000.0,5850000.0,2930.2999999999997
681000.0,5850000.0,2924.9
682000.0,5850000.0,2930.4
683000.0,5850000.0,2944.7000000000003
684000.0,5850000.0,2929.0
685000.0,5850000.0,2963.0
686000.0,5850000.0,2910.4
687000.0,5850000.0,2899.9
688000.0,5850000.0,2897.7
689000.0,5850000.0,2868.7
690000.0,5850000.0,2872.2000000000003
691000.0,5850000.0,2879.8
692000.0,5850000.0,2876.1000000000004
693000.0,5850000.0,2880.6
694000.0,5850000.0,2892.9
695000.0,5850000.0,2889.5
696000.0,5850000.0,2895.2
697000.0,5850000.0,2892.6
698000.0,5850000.0,2898.7
699000.0,5850000.0,2889.5
700000.0,5850000.0,2898.8
701000.0,5850000.0,2906.3
702000.0,5850000.0,2916.5
703000.0,5850000.0,2918.2999999999997
704000.0,5850000.0,2930.4
705000.0,5850000.0,2916.0
706000.0,5850000.0,2935.6
707000.0,5850000.0,2944.9
708000.0,5850000.0,2917.7
709000.0,5850000.0,2933.2999999999997
710000.0,5850000.0,2919.3
711000.0,5850000.0,2919.9
712000.0,5850000.0,2906.0
713000.0,5850000.0,2910.8999999999996
714000.0,5850000.0,2914.4
715000.0,5850000.0,2911.9
716000.0,5850000.0,2898.8
619000.0,5849000.0,3381.2
620000.0,5849000.0,3414.8
621000.0,5849000.0,3413.2999999999997
622000.0,5849000.0,3404.0
623000.0,5849000.0,3415.2999999999997
624000.0,5849000.0,3465.9000000000005
625000.0,5849000.0,3290.2999999999997
626000.0,5849000.0,3315.7
627000.0,5849000.0,3261.5999999999995
628000.0,5849000.0,3220.4
629000.0,5849000.0,3114.0999999999995
630000.0,5849000.0,3140.0
631000.0,5849000.0,3267.9
632000.0,5849000.0,3131.3
633000.0,5849000.0,3060.2
634000.0,5849000.0,3217.7
635000.0,5849000.0,3021.5999999999995
636000.0,5849000.0,3041.3999999999996
637000.0,5849000.0,3065.7
638000.0,5849000.0,3107.7999999999997
639000.0,5849000.0,3144.3
640000.0,5849000.0,3313.2999999999997
641000.0,5849000.0,3188.8999999999996
642000.0,5849000.0,2958.2999999999997
643000.0,5849000.0,2897.0
644000.0,5849000.0,3020.2
645000.0,5849000.0,3049.4
646000.0,5849000.0,3002.9
647000.0,5849000.0,2962.0
648000.0,5849000.0,2935.6
649000.0,5849000.0,3042.2000000000003
650000.0,5849000.0,2987.9
651000.0,5849000.0,2996.5999999999995
652000.0,5849000.0,3054.0
653000.0,5849000.0,3129.7000000000003
654000.0,5849000.0,3184.6
655000.0,5849000.0,3222.2000000000003
656000.0,5849000.0,3211.7000000000003
657000.0,5849000.0,3197.0
658000.0,5849000.0,3194.2000000000003
659000.0,5849000.0,3227.6
660000.0,5849000.0,3182.6
661000.0,5849000.0,3187.0
662000.0,5849000.0,3164.2000000000003
663000.0,5849000.0,2948.5
664000.0,5849000.0,2937.7
665000.0,5849000.0,2936.8
666000.0,5849000.0,2930.6
667000.0,5849000.0,2928.5
668000.0,5849000.0,2927.4
669000.0,5849000.0,2930.7999999999997
670000.0,5849000.0,2932.7
671000.0,5849000.0,2925.7999999999997
672000.0,5849000.0,2922.3
673000.0,5849000.0,2920.2
674000.0,5849000.0,2916.3
675000.0,5849000.0,2917.7
676000.0,5849000.0,2915.2
677000.0,5849000.0,2916.9
678000.0,5849000.0,2921.5
679000.0,5849000.0,2921.9
680000.0,5849000.0,2915.1
681000.0,5849000.0,2924.6
682000.0,5849000.0,2953.7
683000.0,5849000.0,2959.1000000000004
684000.0,5849000.0,2927.7
685000.0,5849000.0,2964.2000000000003
686000.0,5849000.0,2958.8999999999996
687000.0,5849000.0,2938.7
688000.0,5849000.0,2945.6
689000.0,5849000.0,2936.5
690000.0,5849000.0,2915.0
691000.0,5849000.0,2935.2
692000.0,5849000.0,2900.2999999999997
693000.0,5849000.0,2911.3
694000.0,5849000.0,2939.5
695000.0,5849000.0,2897.4
696000.0,5849000.0,2919.3
697000.0,5849000.0,2942.0
698000.0,5849000.0,2935.7999999999997
699000.0,5849000.0,2916.3
700000.0,5849000.0,2934.4
701000.0,5849000.0,2918.7
702000.0,5849000.0,2929.7000000000003
703000.0,5849000.0,2922.6
704000.0,5849000.0,2928.7
705000.0,5849000.0,2943.2
706000.0,5849000.0,2982.2000000000003
707000.0,5849000.0,2936.8
708000.0,5849000.0,2935.1
709000.0,5849000.0,2927.7999999999997
710000.0,5849000.0,2924.3
711000.0,5849000.0,2919.9
712000.0,5849000.0,2907.9
713000.0,5849000.0,2903.8999999999996
714000.0,5849000.0,2914.2000000000003
715000.0,5849000.0,2920.8999999999996
716000.0,5849000.0,2910.1
717000.0,5849000.0,2895.7
620000.0,5848000.0,3413.7
621000.0,5848000.0,3450.7
622000.0,5848000.0,3467.1
623000.0,5848000.0,3479.7000000000003
624000.0,5848000.0,3438.7
625000.0,5848000.0,3403.5
626000.0,5848000.0,3438.7
627000.0,5848000.0,3307.2000000000003
628000.0,5848000.0,3226.9
629000.0,5848000.0,3163.8
630000.0,5848000.0,3087.4
631000.0,5848000.0,3142.7
632000.0,5848000.0,3154.2000000000003
633000.0,5848000.0,3078.4000000000005
634000.0,5848000.0,3233.4000000000005
635000.0,5848000.0,3148.8
636000.0,5848000.0,3208.6000000000004
637000.0,5848000.0,3224.0999999999995
638000.0,5848000.0,3263.5
639000.0,5848000.0,3279.2000000000003
640000.0,5848000.0,3170.9000000000005
641000.0,5848000.0,3002.4
642000.0,5848000.0,2898.1
643000.0,5848000.0,3004.7000000000003
644000.0,5848000.0,3088.5
645000.0,5848000.0,3071.9
646000.0,5848000.0,2937.6
647000.0,5848000.0,2887.1
648000.0,5848000.0,2951.8
649000.0,5848000.0,2984.4
650000.0,5848000.0,2957.4
651000.0,5848000.0,2969.6
652000.0,5848000.0,2985.7
653000.0,5848000.0,3018.2
654000.0,5848000.0,3086.2
655000.0,5848000.0,3174.7000000000003
656000.0,5848000.0,3243.8
657000.0,5848000.0,3274.8
658000.0,5848000.0,3221.2
659000.0,5848000.0,3237.6
660000.0,5848000.0,3206.5999999999995
661000.0,5848000.0,3089.5
662000.0,5848000.0,2950.6
663000.0,5848000.0,2933.6000000000004
664000.0,5848000.0,2942.3
665000.0,5848000.0,2939.3
666000.0,5848000.0,2930.6
667000.0,5848000.0,2935.7
668000.0,5848000.0,2935.1
669000.0,5848000.0,2944.2000000000003
670000.0,5848000.0,2926.6000000000004
671000.0,5848000.0,2929.5
672000.0,5848000.0,2912.7
673000.0,5848000.0,2917.2000000000003
674000.0,5848000.0,2923.5
675000.0,5848000.0,2925.2
676000.0,5848000.0,2921.0
677000.0,5848000.0,2927.1
678000.0,5848000.0,2925.2
679000.0,5848000.0,2934.9
680000.0,5848000.0,2948.2999999999997
681000.0,5848000.0,2931.2
682000.0,5848000.0,2925.7
683000.0,5848000.0,2938.1
684000.0,5848000.0,2943.2999999999997
685000.0,5848000.0,2947.3
686000.0,5848000.0,2985.9000000000005
687000.0,5848000.0,3008.1
688000.0,5848000.0,3017.6
689000.0,5848000.0,2991.7000000000003
690000.0,5848000.0,2974.0
691000.0,5848000.0,2973.4000000000005
692000.0,5848000.0,2936.9
693000.0,5848000.0,2920.4
694000.0,5848000.0,2935.2999999999997
695000.0,5848000.0,2936.6000000000004
696000.0,5848000.0,2922.4
697000.0,5848000.0,2961.9
698000.0,5848000.0,2952.6
699000.0,5848000.0,2964.8
700000.0,5848000.0,2971.3999999999996
701000.0,5848000.0,2956.9
702000.0,5848000.0,2966.5
703000.0,5848000.0,2984.8
704000.0,5848000.0,3037.6
705000.0,5848000.0,2943.7
706000.0,5848000.0,2936.7000000000003
707000.0,5848000.0,2937.1
708000.0,5848000.0,2915.7
709000.0,5848000.0,2923.8
710000.0,5848000.0,3081.3
711000.0,5848000.0,2953.5
712000.0,5848000.0,2908.5
713000.0,5848000.0,2894.5
714000.0,5848000.0,2915.4
715000.0,5848000.0,2893.5
716000.0,5848000.0,2894.0
717000.0,5848000.0,2898.8
620000.0,5847000.0,3436.2
621000.0,5847000.0,3450.7999999999997
622000.0,5847000.0,3517.0
623000.0,5847000.0,3588.2999999999997
624000.0,5847000.0,3455.1
625000.0,5847000.0,3418.8
626000.0,5847000.0,3373.0
627000.0,5847000.0,3250.0
628000.0,5847000.0,3176.3999999999996
629000.0,5847000.0,3127.9
630000.0,5847000.0,3101.0
631000.0,5847000.0,3147.0
632000.0,5847000.0,3112.7
633000.0,5847000.0,3065.6
634000.0,5847000.0,3208.2999999999997
635000.0,5847000.0,3392.3
636000.0,5847000.0,3359.5
637000.0,5847000.0,3501.1000000000004
638000.0,5847000.0,3253.0
639000.0,5847000.0,3162.7
640000.0,5847000.0,3118.1
641000.0,5847000.0,2924.5
642000.0,5847000.0,2915.2999999999997
643000.0,5847000.0,3110.2
644000.0,5847000.0,3066.7000000000003
645000.0,5847000.0,3055.0
646000.0,5847000.0,2896.3
647000.0,5847000.0,2974.6
648000.0,5847000.0,2928.8999999999996
649000.0,5847000.0,2946.2
650000.0,5847000.0,2991.7000000000003
651000.0,5847000.0,3026.9
652000.0,5847000.0,3031.0
653000.0,5847000.0,3052.3
654000.0,5847000.0,3048.8
655000.0,5847000.0,3108.2
656000.0,5847000.0,3259.2000000000003
657000.0,5847000.0,3292.4
658000.0,5847000.0,3300.5
659000.0,5847000.0,3312.9
660000.0,5847000.0,3146.2
661000.0,5847000.0,2981.7000000000003
662000.0,5847000.0,2935.7
663000.0,5847000.0,2934.7000000000003
664000.0,5847000.0,2944.8
665000.0,5847000.0,2963.0
666000.0,5847000.0,2972.7
667000.0,5847000.0,2979.9
668000.0,5847000.0,3013.5
669000.0,5847000.0,2960.7
670000.0,5847000.0,2934.6
671000.0,5847000.0,2923.6000000000004
672000.0,5847000.0,2931.5
673000.0,5847000.0,2929.0
674000.0,5847000.0,2933.3999999999996
675000.0,5847000.0,2936.0
676000.0,5847000.0,2931.5
677000.0,5847000.0,2936.0
678000.0,5847000.0,2929.2000000000003
679000.0,5847000.0,2933.5
680000.0,5847000.0,2930.5
681000.0,5847000.0,2933.0
682000.0,5847000.0,2937.9
683000.0,5847000.0,2943.8
684000.0,5847000.0,2976.7000000000003
685000.0,5847000.0,3001.9
686000.0,5847000.0,2968.8
687000.0,5847000.0,2984.2000000000003
688000.0,5847000.0,2993.8
689000.0,5847000.0,3005.5
690000.0,5847000.0,3045.1
691000.0,5847000.0,3005.1
692000.0,5847000.0,2960.6
693000.0,5847000.0,2933.7
694000.0,5847000.0,2927.5
695000.0,5847000.0,2948.3999999999996
696000.0,5847000.0,2966.9
697000.0,5847000.0,2963.7
698000.0,5847000.0,2951.0
699000.0,5847000.0,2976.3999999999996
700000.0,5847000.0,2996.2
701000.0,5847000.0,2999.2000000000003
702000.0,5847000.0,2998.2999999999997
703000.0,5847000.0,3065.4
704000.0,5847000.0,3060.2999999999997
705000.0,5847000.0,2928.3999999999996
706000.0,5847000.0,2918.2999999999997
707000.0,5847000.0,2964.7000000000003
708000.0,5847000.0,2946.8
709000.0,5847000.0,3110.0
710000.0,5847000.0,3234.0999999999995
711000.0,5847000.0,3479.3
712000.0,5847000.0,3060.4
713000.0,5847000.0,2905.1
714000.0,5847000.0,2895.1
715000.0,5847000.0,2916.3999999999996
716000.0,5847000.0,2912.83
621000.0,5846000.0,3412.7999999999997
622000.0,5846000.0,3437.6
623000.0,5846000.0,3581.7000000000003
624000.0,5846000.0,3468.1
625000.0,5846000.0,3511.9
626000.0,5846000.0,3424.8
627000.0,5846000.0,3335.7999999999997
628000.0,5846000.0,3168.5
629000.0,5846000.0,3117.7
630000.0,5846000.0,3139.8
631000.0,5846000.0,3180.7
632000.0,5846000.0,3141.5
633000.0,5846000.0,3168.0
634000.0,5846000.0,3253.6000000000004
635000.0,5846000.0,3516.0
636000.0,5846000.0,3351.3
637000.0,5846000.0,3305.4
638000.0,5846000.0,3215.6
639000.0,5846000.0,3188.7
640000.0,5846000.0,2990.1
641000.0,5846000.0,2911.6000000000004
642000.0,5846000.0,2917.2000000000003
643000.0,5846000.0,3067.2000000000003
644000.0,5846000.0,2994.6
645000.0,5846000.0,2903.8999999999996
646000.0,5846000.0,2905.1
647000.0,5846000.0,2979.8
648000.0,5846000.0,2910.1
649000.0,5846000.0,2991.9
650000.0,5846000.0,2974.7000000000003
651000.0,5846000.0,2978.2
652000.0,5846000.0,3010.9000000000005
653000.0,5846000.0,3046.3999999999996
654000.0,5846000.0,3123.4000000000005
655000.0,5846000.0,3130.1
656000.0,5846000.0,3169.0
657000.0,5846000.0,3172.3
658000.0,5846000.0,3270.7999999999997
659000.0,5846000.0,3175.5
660000.0,5846000.0,3029.0999999999995
661000.0,5846000.0,2949.1000000000004
662000.0,5846000.0,2965.7
663000.0,5846000.0,3038.1
664000.0,5846000.0,3096.9
665000.0,5846000.0,3079.0
666000.0,5846000.0,3063.7
667000.0,5846000.0,3215.6
668000.0,5846000.0,3151.3
669000.0,5846000.0,2990.7999999999997
670000.0,5846000.0,2929.5
671000.0,5846000.0,2920.1
672000.0,5846000.0,2937.6
673000.0,5846000.0,2972.2000000000003
674000.0,5846000.0,2960.0
675000.0,5846000.0,2961.9
676000.0,5846000.0,2950.7
677000.0,5846000.0,2940.5
678000.0,5846000.0,2935.1
679000.0,5846000.0,2940.0
680000.0,5846000.0,2945.0
681000.0,5846000.0,2982.0
682000.0,5846000.0,2996.0
683000.0,5846000.0,3004.2000000000003
684000.0,5846000.0,3024.5
685000.0,5846000.0,3051.1000000000004
686000.0,5846000.0,3021.1000000000004
687000.0,5846000.0,2993.6000000000004
688000.0,5846000.0,3012.6
689000.0,5846000.0,3031.3
690000.0,5846000.0,3040.2999999999997
691000.0,5846000.0,2993.8
692000.0,5846000.0,2936.3
693000.0,5846000.0,2902.5
694000.0,5846000.0,2938.2999999999997
695000.0,5846000.0,2942.7
696000.0,5846000.0,2957.5
697000.0,5846000.0,2923.5
698000.0,5846000.0,2947.2000000000003
699000.0,5846000.0,2967.6
700000.0,5846000.0,2971.0
701000.0,5846000.0,2981.3
702000.0,5846000.0,2987.4
703000.0,5846000.0,3027.0
704000.0,5846000.0,3022.9
705000.0,5846000.0,2921.8
706000.0,5846000.0,2933.3999999999996
707000.0,5846000.0,2924.8
708000.0,5846000.0,2928.2
709000.0,5846000.0,3069.5
710000.0,5846000.0,3138.2999999999997
711000.0,5846000.0,3263.1
712000.0,5846000.0,3094.8
713000.0,5846000.0,2937.2000000000003
714000.0,5846000.0,2914.2000000000003
715000.0,5846000.0,2903.8999999999996
621000.0,5845000.0,3424.5
622000.0,5845000.0,3505.9000000000005
623000.0,5845000.0,3542.7999999999997
624000.0,5845000.0,3588.1
625000.0,5845000.0,3559.9
626000.0,5845000.0,3439.0
627000.0,5845000.0,3335.2999999999997
628000.0,5845000.0,3325.7
629000.0,5845000.0,3161.1000000000004
630000.0,5845000.0,3289.0
631000.0,5845000.0,3280.5
632000.0,5845000.0,3154.3
633000.0,5845000.0,3221.7000000000003
634000.0,5845000.0,3286.7000000000003
635000.0,5845000.0,3222.2000000000003
636000.0,5845000.0,3127.4
637000.0,5845000.0,3109.7000000000003
638000.0,5845000.0,3114.5
639000.0,5845000.0,3078.5
640000.0,5845000.0,2975.2
641000.0,5845000.0,2926.3
642000.0,5845000.0,2918.1
643000.0,5845000.0,2919.5
644000.0,5845000.0,2923.5
645000.0,5845000.0,3000.9000000000005
646000.0,5845000.0,2912.1
647000.0,5845000.0,2912.7999999999997
648000.0,5845000.0,2936.6000000000004
649000.0,5845000.0,2961.9
650000.0,5845000.0,2994.3
651000.0,5845000.0,3026.2
652000.0,5845000.0,3040.1
653000.0,5845000.0,3093.2
654000.0,5845000.0,3091.3999999999996
655000.0,5845000.0,3066.0
656000.0,5845000.0,3041.2
657000.0,5845000.0,3117.0
658000.0,5845000.0,3036.3
659000.0,5845000.0,2978.5
660000.0,5845000.0,2959.9
661000.0,5845000.0,3035.7
662000.0,5845000.0,3175.5
663000.0,5845000.0,3242.9
664000.0,5845000.0,3308.4000000000005
665000.0,5845000.0,3251.7000000000003
666000.0,5845000.0,3205.2
667000.0,5845000.0,3322.0
668000.0,5845000.0,3197.2000000000003
669000.0,5845000.0,3002.3
670000.0,5845000.0,2930.6
671000.0,5845000.0,2926.7000000000003
672000.0,5845000.0,2961.3999999999996
673000.0,5845000.0,3080.9000000000005
674000.0,5845000.0,3045.9000000000005
675000.0,5845000.0,2958.2
676000.0,5845000.0,2937.1
677000.0,5845000.0,2954.8
678000.0,5845000.0,2964.3
679000.0,5845000.0,2980.4
680000.0,5845000.0,3024.2000000000003
681000.0,5845000.0,3095.7
682000.0,5845000.0,3060.5
683000.0,5845000.0,3043.4000000000005
684000.0,5845000.0,3051.1000000000004
685000.0,5845000.0,3041.7000000000003
686000.0,5845000.0,3032.0
687000.0,5845000.0,3023.2
688000.0,5845000.0,3014.0999999999995
689000.0,5845000.0,3024.7000000000003
690000.0,5845000.0,2987.5
691000.0,5845000.0,2979.0999999999995
692000.0,5845000.0,2929.9
693000.0,5845000.0,2933.0
694000.0,5845000.0,2932.7999999999997
695000.0,5845000.0,2934.3
696000.0,5845000.0,2958.8999999999996
697000.0,5845000.0,2942.7999999999997
698000.0,5845000.0,2942.9
699000.0,5845000.0,2951.7000000000003
700000.0,5845000.0,2974.2000000000003
701000.0,5845000.0,2983.8
702000.0,5845000.0,2987.1
703000.0,5845000.0,3038.2
704000.0,5845000.0,3102.2000000000003
705000.0,5845000.0,2928.8
706000.0,5845000.0,2927.0
707000.0,5845000.0,2933.5
708000.0,5845000.0,2932.0
709000.0,5845000.0,3035.2
710000.0,5845000.0,3105.0
711000.0,5845000.0,3016.3
712000.0,5845000.0,2921.3
713000.0,5845000.0,2979.5
714000.0,5845000.0,2906.3
715000.0,5845000.0,2909.0
716000.0,5845000.0,2897.1
621000.0,5844000.0,3462.5
622000.0,5844000.0,3508.6000000000004
623000.0,5844000.0,3484.3
624000.0,5844000.0,3476.1000000000004
625000.0,5844000.0,3588.7
626000.0,5844000.0,3621.5
627000.0,5844000.0,3484.8
628000.0,5844000.0,3325.5
629000.0,5844000.0,3208.7
630000.0,5844000.0,3330.0
631000.0,5844000.0,3259.0
632000.0,5844000.0,3183.2
633000.0,5844000.0,3204.3
634000.0,5844000.0,3332.4
635000.0,5844000.0,3176.1000000000004
636000.0,5844000.0,3084.7000000000003
637000.0,5844000.0,3125.2
638000.0,5844000.0,3214.8
639000.0,5844000.0,3033.6000000000004
640000.0,5844000.0,2948.1
641000.0,5844000.0,2934.4
642000.0,5844000.0,2932.6
643000.0,5844000.0,2969.0
644000.0,5844000.0,3004.0
645000.0,5844000.0,3020.2
646000.0,5844000.0,2935.7999999999997
647000.0,5844000.0,2954.7000000000003
648000.0,5844000.0,2953.3999999999996
649000.0,5844000.0,2983.6000000000004
650000.0,5844000.0,3067.9
651000.0,5844000.0,3105.1
652000.0,5844000.0,3113.0
653000.0,5844000.0,3070.5
654000.0,5844000.0,3058.5
655000.0,5844000.0,3064.0
656000.0,5844000.0,3020.1
657000.0,5844000.0,3031.2
658000.0,5844000.0,2952.5
659000.0,5844000.0,2954.6
660000.0,5844000.0,2983.4000000000005
661000.0,5844000.0,3103.5
662000.0,5844000.0,3319.0
663000.0,5844000.0,3308.5
664000.0,5844000.0,3313.5
665000.0,5844000.0,3292.9
666000.0,5844000.0,3256.1000000000004
667000.0,5844000.0,3351.7000000000003
668000.0,5844000.0,3223.1
669000.0,5844000.0,3003.7
670000.0,5844000.0,2936.3999999999996
671000.0,5844000.0,2935.0
672000.0,5844000.0,3022.1
673000.0,5844000.0,3007.7
674000.0,5844000.0,2936.1000000000004
675000.0,5844000.0,2938.2999999999997
676000.0,5844000.0,2978.7
677000.0,5844000.0,3137.6
678000.0,5844000.0,2978.6000000000004
679000.0,5844000.0,3038.2
680000.0,5844000.0,3031.3
681000.0,5844000.0,3005.5
682000.0,5844000.0,3031.7000000000003
683000.0,5844000.0,3095.2999999999997
684000.0,5844000.0,3073.0
685000.0,5844000.0,3055.7
686000.0,5844000.0,3036.5
687000.0,5844000.0,3063.8999999999996
688000.0,5844000.0,3084.4
689000.0,5844000.0,3023.5
690000.0,5844000.0,2980.6
691000.0,5844000.0,2977.0
692000.0,5844000.0,2927.7
693000.0,5844000.0,2926.8
694000.0,5844000.0,2932.0
695000.0,5844000.0,2941.5
696000.0,5844000.0,2952.2000000000003
697000.0,5844000.0,2969.4
698000.0,5844000.0,2937.4
699000.0,5844000.0,2972.0
700000.0,5844000.0,2976.5
701000.0,5844000.0,3011.1000000000004
702000.0,5844000.0,3056.5
703000.0,5844000.0,3134.4
704000.0,5844000.0,3057.3
705000.0,5844000.0,2945.1
706000.0,5844000.0,2932.7999999999997
707000.0,5844000.0,2937.1
708000.0,5844000.0,2923.1
709000.0,5844000.0,2958.0
710000.0,5844000.0,2973.8
711000.0,5844000.0,2982.4
712000.0,5844000.0,2944.6
713000.0,5844000.0,2911.0
714000.0,5844000.0,2901.0
715000.0,5844000.0,2954.3
716000.0,5844000.0,2927.2000000000003
717000.0,5844000.0,2900.0
622000.0,5843000.0,3515.6
623000.0,5843000.0,3513.4000000000005
624000.0,5843000.0,3463.0
625000.0,5843000.0,3549.3
626000.0,5843000.0,3540.4
627000.0,5843000.0,3579.0
628000.0,5843000.0,3451.9
629000.0,5843000.0,3330.4
630000.0,5843000.0,3342.0
631000.0,5843000.0,3304.2000000000003
632000.0,5843000.0,3279.9
633000.0,5843000.0,3333.5
634000.0,5843000.0,3337.3
635000.0,5843000.0,3205.2
636000.0,5843000.0,3071.5999999999995
637000.0,5843000.0,3036.5999999999995
638000.0,5843000.0,3204.0999999999995
639000.0,5843000.0,3068.7
640000.0,5843000.0,2951.8
641000.0,5843000.0,2954.9
642000.0,5843000.0,3077.5
643000.0,5843000.0,3142.0
644000.0,5843000.0,3054.9
645000.0,5843000.0,2963.7
646000.0,5843000.0,3027.7
647000.0,5843000.0,3032.6
648000.0,5843000.0,3000.2999999999997
649000.0,5843000.0,3015.9000000000005
650000.0,5843000.0,3044.7000000000003
651000.0,5843000.0,3014.5
652000.0,5843000.0,3061.1000000000004
653000.0,5843000.0,3090.2999999999997
654000.0,5843000.0,3108.2999999999997
655000.0,5843000.0,3081.5999999999995
656000.0,5843000.0,2982.1
657000.0,5843000.0,2961.3999999999996
658000.0,5843000.0,2952.0
659000.0,5843000.0,2965.7999999999997
660000.0,5843000.0,3110.6
661000.0,5843000.0,3244.6
662000.0,5843000.0,3273.0
663000.0,5843000.0,3256.2
664000.0,5843000.0,3256.0
665000.0,5843000.0,3305.7
666000.0,5843000.0,3146.8
667000.0,5843000.0,3053.0
668000.0,5843000.0,3107.7999999999997
669000.0,5843000.0,2952.5
670000.0,5843000.0,2931.0
671000.0,5843000.0,2935.7
672000.0,5843000.0,2942.7999999999997
673000.0,5843000.0,2949.0
674000.0,5843000.0,2943.6000000000004
675000.0,5843000.0,2948.2
676000.0,5843000.0,3036.3999999999996
677000.0,5843000.0,3123.0
678000.0,5843000.0,2982.2000000000003
679000.0,5843000.0,3059.9
680000.0,5843000.0,3051.9
681000.0,5843000.0,3080.2999999999997
682000.0,5843000.0,3020.0
683000.0,5843000.0,3053.4000000000005
684000.0,5843000.0,3078.2999999999997
685000.0,5843000.0,3035.7
686000.0,5843000.0,3049.9
687000.0,5843000.0,3074.6
688000.0,5843000.0,3076.5999999999995
689000.0,5843000.0,3035.0
690000.0,5843000.0,3016.8
691000.0,5843000.0,2973.7
692000.0,5843000.0,2925.0
693000.0,5843000.0,2925.0
694000.0,5843000.0,2942.6
695000.0,5843000.0,2970.6
696000.0,5843000.0,3019.4
697000.0,5843000.0,3022.0
698000.0,5843000.0,2968.5
699000.0,5843000.0,2995.2999999999997
700000.0,5843000.0,3048.5
701000.0,5843000.0,3027.3
702000.0,5843000.0,3101.3999999999996
703000.0,5843000.0,3121.3999999999996
704000.0,5843000.0,2940.8999999999996
705000.0,5843000.0,2937.7999999999997
706000.0,5843000.0,2965.7
707000.0,5843000.0,2949.7000000000003
708000.0,5843000.0,2940.0
709000.0,5843000.0,2953.1
710000.0,5843000.0,3066.0
711000.0,5843000.0,3121.3
712000.0,5843000.0,2941.5
713000.0,5843000.0,2916.2
714000.0,5843000.0,2981.5999999999995
715000.0,5843000.0,2905.8999999999996
716000.0,5843000.0,2994.0999999999995
717000.0,5843000.0,2927.0
624000.0,5842000.0,3445.5
625000.0,5842000.0,3500.7999999999997
626000.0,5842000.0,3524.0999999999995
627000.0,5842000.0,3567.7
628000.0,5842000.0,3517.3
629000.0,5842000.0,3393.5
630000.0,5842000.0,3557.7
631000.0,5842000.0,3384.7000000000003
632000.0,5842000.0,3331.5999999999995
633000.0,5842000.0,3358.4000000000005
634000.0,5842000.0,3240.2
635000.0,5842000.0,3106.0
636000.0,5842000.0,3060.4
637000.0,5842000.0,3033.2
638000.0,5842000.0,3036.3
639000.0,5842000.0,2996.9
640000.0,5842000.0,2963.1
641000.0,5842000.0,2994.7000000000003
642000.0,5842000.0,3100.4
643000.0,5842000.0,3014.5
644000.0,5842000.0,3014.4
645000.0,5842000.0,3067.7999999999997
646000.0,5842000.0,3148.8
647000.0,5842000.0,3100.0
648000.0,5842000.0,3022.7999999999997
649000.0,5842000.0,2975.0
650000.0,5842000.0,2982.7
651000.0,5842000.0,3037.7999999999997
652000.0,5842000.0,3065.2999999999997
653000.0,5842000.0,3035.5
654000.0,5842000.0,3063.5
655000.0,5842000.0,2977.1
656000.0,5842000.0,2959.3
657000.0,5842000.0,2952.5
658000.0,5842000.0,2964.4
659000.0,5842000.0,3014.7000000000003
660000.0,5842000.0,3063.2999999999997
661000.0,5842000.0,3139.4
662000.0,5842000.0,3204.9
663000.0,5842000.0,3260.0
664000.0,5842000.0,3281.7000000000003
665000.0,5842000.0,3273.0
666000.0,5842000.0,3073.8999999999996
667000.0,5842000.0,2952.5
668000.0,5842000.0,2927.9
669000.0,5842000.0,2933.2
670000.0,5842000.0,2923.5
671000.0,5842000.0,2936.9
672000.0,5842000.0,2953.8
673000.0,5842000.0,2957.5
674000.0,5842000.0,2953.6000000000004
675000.0,5842000.0,2991.0
676000.0,5842000.0,3024.0999999999995
677000.0,5842000.0,3157.3
678000.0,5842000.0,3030.6
679000.0,5842000.0,3075.2
680000.0,5842000.0,3082.7999999999997
681000.0,5842000.0,3072.0
682000.0,5842000.0,3030.5
683000.0,5842000.0,3014.7000000000003
684000.0,5842000.0,3049.7000000000003
685000.0,5842000.0,2995.7999999999997
686000.0,5842000.0,3045.7
