x,y,z
810000.0,5632000.0,8840.599999999999
811000.0,5632000.0,8645.2
812000.0,5632000.0,8546.6
813000.0,5632000.0,8273.9
814000.0,5632000.0,8282.0
815000.0,5632000.0,8438.6
816000.0,5632000.0,8538.0
817000.0,5632000.0,8125.2
818000.0,5632000.0,7972.6
819000.0,5632000.0,8953.6
820000.0,5632000.0,9214.7
821000.0,5632000.0,9692.9
822000.0,5632000.0,9879.199999999999
823000.0,5632000.0,9948.6
824000.0,5632000.0,10547.5
825000.0,5632000.0,10265.599999999999
826000.0,5632000.0,10205.0
827000.0,5632000.0,10531.8
828000.0,5632000.0,10423.2
829000.0,5632000.0,10288.3
830000.0,5632000.0,10076.0
831000.0,5632000.0,9720.9
832000.0,5632000.0,10442.1
833000.0,5632000.0,10861.199999999999
834000.0,5632000.0,11388.0
835000.0,5632000.0,11151.5
836000.0,5632000.0,10525.1
837000.0,5632000.0,10642.1
838000.0,5632000.0,10113.6
839000.0,5632000.0,10175.9
840000.0,5632000.0,10013.5
841000.0,5632000.0,9978.9
842000.0,5632000.0,10012.4
732000.0,5631000.0,6060.47
733000.0,5631000.0,5845.299999999999
734000.0,5631000.0,5763.099999999999
735000.0,5631000.0,5423.6
736000.0,5631000.0,5727.9
737000.0,5631000.0,5342.4
738000.0,5631000.0,5214.8
739000.0,5631000.0,5425.599999999999
740000.0,5631000.0,5761.0
741000.0,5631000.0,5950.5
742000.0,5631000.0,5839.8
743000.0,5631000.0,5556.800000000001
744000.0,5631000.0,5663.0
745000.0,5631000.0,5285.0
746000.0,5631000.0,5140.299999999999
747000.0,5631000.0,5306.6
748000.0,5631000.0,5414.6
749000.0,5631000.0,5281.4
750000.0,5631000.0,5616.4
751000.0,5631000.0,6076.5
752000.0,5631000.0,6069.9
753000.0,5631000.0,5930.599999999999
754000.0,5631000.0,5822.3
755000.0,5631000.0,5615.2
756000.0,5631000.0,5598.5
757000.0,5631000.0,5936.900000000001
758000.0,5631000.0,5679.8
759000.0,5631000.0,5917.1
760000.0,5631000.0,6089.400000000001
761000.0,5631000.0,5754.400000000001
762000.0,5631000.0,5872.7
763000.0,5631000.0,6622.9
764000.0,5631000.0,6439.8
765000.0,5631000.0,6359.300000000001
766000.0,5631000.0,6686.0
767000.0,5631000.0,6655.5
768000.0,5631000.0,6651.6
769000.0,5631000.0,6335.699999999999
770000.0,5631000.0,6437.6
771000.0,5631000.0,6522.9
772000.0,5631000.0,6242.7
773000.0,5631000.0,6037.9
774000.0,5631000.0,6037.1
775000.0,5631000.0,6298.0
776000.0,5631000.0,6756.700000000001
777000.0,5631000.0,6865.4
778000.0,5631000.0,7171.2
779000.0,5631000.0,6725.0
780000.0,5631000.0,6464.6
781000.0,5631000.0,6778.0
782000.0,5631000.0,7922.9
783000.0,5631000.0,7887.3
784000.0,5631000.0,7234.400000000001
785000.0,5631000.0,7078.099999999999
786000.0,5631000.0,6996.2
787000.0,5631000.0,7200.2
788000.0,5631000.0,6795.599999999999
789000.0,5631000.0,6437.799999999999
790000.0,5631000.0,7022.200000000001
791000.0,5631000.0,8263.8
792000.0,5631000.0,8226.6
793000.0,5631000.0,7037.9
794000.0,5631000.0,6755.0
795000.0,5631000.0,6983.8
796000.0,5631000.0,7217.4
797000.0,5631000.0,7123.8
798000.0,5631000.0,7393.099999999999
799000.0,5631000.0,7886.5
800000.0,5631000.0,7656.6
801000.0,5631000.0,7970.299999999999
802000.0,5631000.0,7815.5
803000.0,5631000.0,7699.700000000001
804000.0,5631000.0,8218.5
805000.0,5631000.0,8264.3
806000.0,5631000.0,9395.9
807000.0,5631000.0,9522.6
808000.0,5631000.0,9328.9
809000.0,5631000.0,9033.2
810000.0,5631000.0,8682.4
811000.0,5631000.0,8799.8
812000.0,5631000.0,8549.6
813000.0,5631000.0,8654.3
814000.0,5631000.0,8578.8
815000.0,5631000.0,9038.7
816000.0,5631000.0,8501.4
817000.0,5631000.0,8613.2
818000.0,5631000.0,8353.099999999999
819000.0,5631000.0,8106.599999999999
820000.0,5631000.0,8610.3
821000.0,5631000.0,9274.7
822000.0,5631000.0,9797.3
823000.0,5631000.0,9415.7
824000.0,5631000.0,10353.800000000001
825000.0,5631000.0,9872.0
826000.0,5631000.0,10641.7
827000.0,5631000.0,10288.3
828000.0,5631000.0,10606.900000000001
829000.0,5631000.0,10147.2
830000.0,5631000.0,10429.3
831000.0,5631000.0,9954.400000000001
832000.0,5631000.0,10689.6
833000.0,5631000.0,10514.7
834000.0,5631000.0,10682.6
835000.0,5631000.0,11482.3
840000.0,5631000.0,10527.0
841000.0,5631000.0,10026.900000000001
842000.0,5631000.0,9958.9
732000.0,5630000.0,5829.120000000001
733000.0,5630000.0,5810.4
734000.0,5630000.0,5821.4
735000.0,5630000.0,5646.6
736000.0,5630000.0,5393.9
737000.0,5630000.0,5386.1
738000.0,5630000.0,5251.700000000001
739000.0,5630000.0,5648.8
740000.0,5630000.0,5582.1
741000.0,5630000.0,5934.400000000001
742000.0,5630000.0,5988.9
743000.0,5630000.0,5898.099999999999
744000.0,5630000.0,5659.5
745000.0,5630000.0,5292.200000000001
746000.0,5630000.0,5166.4
747000.0,5630000.0,5346.0
748000.0,5630000.0,5616.700000000001
749000.0,5630000.0,5807.3
750000.0,5630000.0,5375.0
751000.0,5630000.0,5567.0
752000.0,5630000.0,5803.299999999999
753000.0,5630000.0,6130.1
754000.0,5630000.0,6046.0
755000.0,5630000.0,6087.0
756000.0,5630000.0,5642.5
757000.0,5630000.0,6080.299999999999
758000.0,5630000.0,5909.200000000001
759000.0,5630000.0,6122.799999999999
760000.0,5630000.0,6256.900000000001
761000.0,5630000.0,6024.700000000001
762000.0,5630000.0,6162.6
763000.0,5630000.0,6048.4
764000.0,5630000.0,6078.299999999999
765000.0,5630000.0,6318.199999999999
766000.0,5630000.0,6815.599999999999
767000.0,5630000.0,6917.4
768000.0,5630000.0,6639.6
769000.0,5630000.0,6418.6
770000.0,5630000.0,6372.7
771000.0,5630000.0,6178.199999999999
772000.0,5630000.0,6117.1
773000.0,5630000.0,6285.1
774000.0,5630000.0,6577.799999999999
775000.0,5630000.0,6820.699999999999
776000.0,5630000.0,6899.300000000001
777000.0,5630000.0,7360.2
778000.0,5630000.0,7711.3
779000.0,5630000.0,7268.5
780000.0,5630000.0,7447.4
781000.0,5630000.0,6655.2
782000.0,5630000.0,7037.0
783000.0,5630000.0,7598.7
784000.0,5630000.0,7474.300000000001
785000.0,5630000.0,7332.5
786000.0,5630000.0,6494.9
787000.0,5630000.0,6175.599999999999
788000.0,5630000.0,5937.5
789000.0,5630000.0,6827.1
790000.0,5630000.0,6337.9
791000.0,5630000.0,7601.5
792000.0,5630000.0,7877.6
793000.0,5630000.0,7423.0
794000.0,5630000.0,7738.4
795000.0,5630000.0,6996.1
796000.0,5630000.0,6955.799999999999
797000.0,5630000.0,7459.1
798000.0,5630000.0,7573.6
799000.0,5630000.0,7411.1
800000.0,5630000.0,7331.6
801000.0,5630000.0,7374.1
802000.0,5630000.0,7760.699999999999
803000.0,5630000.0,8160.8
804000.0,5630000.0,8166.5
805000.0,5630000.0,8472.7
806000.0,5630000.0,8782.2
807000.0,5630000.0,9064.6
808000.0,5630000.0,9374.400000000001
809000.0,5630000.0,9704.400000000001
810000.0,5630000.0,9103.099999999999
811000.0,5630000.0,9292.9
812000.0,5630000.0,8822.5
813000.0,5630000.0,9118.300000000001
814000.0,5630000.0,8518.9
815000.0,5630000.0,8863.6
816000.0,5630000.0,9278.9
817000.0,5630000.0,8754.3
818000.0,5630000.0,9263.099999999999
819000.0,5630000.0,8910.2
820000.0,5630000.0,9019.8
821000.0,5630000.0,8980.2
822000.0,5630000.0,9056.8
823000.0,5630000.0,9071.4
824000.0,5630000.0,9252.1
825000.0,5630000.0,9507.9
826000.0,5630000.0,10396.7
827000.0,5630000.0,10387.6
830000.0,5630000.0,10469.099999999999
831000.0,5630000.0,10584.9
832000.0,5630000.0,9578.6
731000.0,5629000.0,6312.91
732000.0,5629000.0,6028.9
733000.0,5629000.0,5968.0
734000.0,5629000.0,6034.200000000001
735000.0,5629000.0,5867.5
736000.0,5629000.0,5548.0
737000.0,5629000.0,5296.1
738000.0,5629000.0,5638.5
739000.0,5629000.0,5910.0
740000.0,5629000.0,5837.4
741000.0,5629000.0,5700.0
742000.0,5629000.0,5882.4
743000.0,5629000.0,5972.0
744000.0,5629000.0,5913.8
745000.0,5629000.0,5332.3
746000.0,5629000.0,5186.2
747000.0,5629000.0,5420.799999999999
748000.0,5629000.0,5637.6
749000.0,5629000.0,5886.6
750000.0,5629000.0,5851.900000000001
751000.0,5629000.0,5715.799999999999
752000.0,5629000.0,5725.9
753000.0,5629000.0,6081.4
754000.0,5629000.0,6413.099999999999
755000.0,5629000.0,6102.7
756000.0,5629000.0,5713.6
757000.0,5629000.0,6351.6
758000.0,5629000.0,6055.9
759000.0,5629000.0,6191.700000000001
760000.0,5629000.0,6320.4
761000.0,5629000.0,6098.099999999999
762000.0,5629000.0,6373.8
763000.0,5629000.0,6323.0
764000.0,5629000.0,6411.5
765000.0,5629000.0,6649.300000000001
766000.0,5629000.0,6676.2
767000.0,5629000.0,6544.200000000001
768000.0,5629000.0,6340.299999999999
769000.0,5629000.0,6267.799999999999
770000.0,5629000.0,6247.799999999999
771000.0,5629000.0,6295.2
772000.0,5629000.0,6352.6
773000.0,5629000.0,6991.3
774000.0,5629000.0,6815.9
775000.0,5629000.0,7591.6
776000.0,5629000.0,7625.0
777000.0,5629000.0,7643.5
778000.0,5629000.0,7027.4
779000.0,5629000.0,7310.5
780000.0,5629000.0,6488.4
781000.0,5629000.0,6555.799999999999
782000.0,5629000.0,7006.700000000001
783000.0,5629000.0,7419.9
784000.0,5629000.0,7270.2
785000.0,5629000.0,7133.199999999999
786000.0,5629000.0,6788.6
787000.0,5629000.0,6329.0
788000.0,5629000.0,6430.299999999999
789000.0,5629000.0,6715.799999999999
790000.0,5629000.0,7512.4
791000.0,5629000.0,7198.099999999999
792000.0,5629000.0,8099.400000000001
793000.0,5629000.0,8095.1
794000.0,5629000.0,7290.1
795000.0,5629000.0,6513.9
796000.0,5629000.0,6283.5
797000.0,5629000.0,7422.9
798000.0,5629000.0,7038.9
799000.0,5629000.0,7050.599999999999
800000.0,5629000.0,7038.6
801000.0,5629000.0,7888.9
802000.0,5629000.0,7904.8
803000.0,5629000.0,7534.700000000001
804000.0,5629000.0,7756.4
805000.0,5629000.0,8214.199999999999
806000.0,5629000.0,8392.5
807000.0,5629000.0,8921.0
808000.0,5629000.0,9380.4
809000.0,5629000.0,9583.7
810000.0,5629000.0,9419.3
811000.0,5629000.0,9644.1
812000.0,5629000.0,9823.0
813000.0,5629000.0,9600.9
814000.0,5629000.0,8889.7
815000.0,5629000.0,9260.3
816000.0,5629000.0,9596.699999999999
817000.0,5629000.0,9056.1
818000.0,5629000.0,9675.2
819000.0,5629000.0,9738.4
820000.0,5629000.0,9832.6
821000.0,5629000.0,10002.1
822000.0,5629000.0,9793.300000000001
823000.0,5629000.0,10087.6
824000.0,5629000.0,10102.1
825000.0,5629000.0,10394.2
826000.0,5629000.0,9561.1
832000.0,5629000.0,9909.1
728000.0,5628000.0,5811.6
729000.0,5628000.0,6119.74
730000.0,5628000.0,6115.0199999999995
731000.0,5628000.0,6065.15
732000.0,5628000.0,5875.0
733000.0,5628000.0,5636.6
734000.0,5628000.0,5640.5
735000.0,5628000.0,5479.5
736000.0,5628000.0,5587.5
737000.0,5628000.0,5698.299999999999
738000.0,5628000.0,5261.3
739000.0,5628000.0,5721.0
740000.0,5628000.0,5502.200000000001
741000.0,5628000.0,5939.700000000001
742000.0,5628000.0,5878.6
743000.0,5628000.0,5890.4
744000.0,5628000.0,5994.700000000001
745000.0,5628000.0,5390.799999999999
746000.0,5628000.0,5226.800000000001
747000.0,5628000.0,5426.700000000001
748000.0,5628000.0,5709.0
749000.0,5628000.0,5673.199999999999
750000.0,5628000.0,5991.900000000001
751000.0,5628000.0,6234.700000000001
752000.0,5628000.0,5633.7
753000.0,5628000.0,5872.4
754000.0,5628000.0,6522.1
755000.0,5628000.0,6101.900000000001
756000.0,5628000.0,6089.400000000001
757000.0,5628000.0,5842.3
758000.0,5628000.0,6088.0
759000.0,5628000.0,6236.700000000001
760000.0,5628000.0,6398.5
761000.0,5628000.0,6232.4
762000.0,5628000.0,6131.0
763000.0,5628000.0,6019.0
764000.0,5628000.0,6549.6
765000.0,5628000.0,6722.200000000001
766000.0,5628000.0,6621.900000000001
767000.0,5628000.0,6384.9
768000.0,5628000.0,6450.9
769000.0,5628000.0,6377.799999999999
770000.0,5628000.0,6490.799999999999
771000.0,5628000.0,6824.700000000001
772000.0,5628000.0,7303.299999999999
773000.0,5628000.0,7373.6
774000.0,5628000.0,7623.299999999999
775000.0,5628000.0,7675.4
776000.0,5628000.0,6977.1
777000.0,5628000.0,7217.3
778000.0,5628000.0,6548.7
779000.0,5628000.0,7269.300000000001
780000.0,5628000.0,7724.700000000001
781000.0,5628000.0,7017.9
782000.0,5628000.0,7421.6
783000.0,5628000.0,7095.799999999999
784000.0,5628000.0,6828.5
785000.0,5628000.0,6300.1
786000.0,5628000.0,7042.799999999999
787000.0,5628000.0,7148.9
788000.0,5628000.0,7612.200000000001
789000.0,5628000.0,7770.2
790000.0,5628000.0,8267.6
791000.0,5628000.0,8301.1
792000.0,5628000.0,8440.5
793000.0,5628000.0,7615.2
794000.0,5628000.0,7051.0
795000.0,5628000.0,7183.8
796000.0,5628000.0,7039.1
797000.0,5628000.0,6589.200000000001
798000.0,5628000.0,7430.2
799000.0,5628000.0,7436.4
800000.0,5628000.0,7038.9
801000.0,5628000.0,7099.8
802000.0,5628000.0,7881.900000000001
803000.0,5628000.0,7862.7
804000.0,5628000.0,8057.9
805000.0,5628000.0,8086.7
806000.0,5628000.0,8464.9
807000.0,5628000.0,8346.2
808000.0,5628000.0,8865.9
809000.0,5628000.0,9581.2
810000.0,5628000.0,9335.5
811000.0,5628000.0,8911.699999999999
812000.0,5628000.0,9285.599999999999
813000.0,5628000.0,9389.5
814000.0,5628000.0,8799.7
815000.0,5628000.0,9309.1
816000.0,5628000.0,9816.900000000001
817000.0,5628000.0,9478.2
818000.0,5628000.0,9471.699999999999
819000.0,5628000.0,9329.6
820000.0,5628000.0,9378.4
821000.0,5628000.0,9440.800000000001
822000.0,5628000.0,9307.0
823000.0,5628000.0,9548.5
824000.0,5628000.0,9762.9
825000.0,5628000.0,10249.099999999999
728000.0,5627000.0,5808.289999999999
729000.0,5627000.0,5951.800000000001
730000.0,5627000.0,6254.8
731000.0,5627000.0,6138.299999999999
732000.0,5627000.0,5838.4
733000.0,5627000.0,5621.2
734000.0,5627000.0,5982.1
735000.0,5627000.0,6121.2
736000.0,5627000.0,5786.3
737000.0,5627000.0,5904.9
738000.0,5627000.0,5354.700000000001
739000.0,5627000.0,5626.6
740000.0,5627000.0,5847.4
741000.0,5627000.0,5839.700000000001
742000.0,5627000.0,6208.4
743000.0,5627000.0,6244.300000000001
744000.0,5627000.0,6064.400000000001
745000.0,5627000.0,5402.1
746000.0,5627000.0,5240.299999999999
747000.0,5627000.0,5451.6
748000.0,5627000.0,5559.700000000001
749000.0,5627000.0,5981.1
750000.0,5627000.0,6051.900000000001
751000.0,5627000.0,6425.1
752000.0,5627000.0,5707.6
753000.0,5627000.0,6059.8
754000.0,5627000.0,6283.9
755000.0,5627000.0,6694.1
756000.0,5627000.0,6545.0
757000.0,5627000.0,6552.9
758000.0,5627000.0,6288.4
759000.0,5627000.0,6794.8
760000.0,5627000.0,6541.5
761000.0,5627000.0,6254.6
762000.0,5627000.0,6122.6
763000.0,5627000.0,6655.2
764000.0,5627000.0,6851.6
765000.0,5627000.0,6640.9
766000.0,5627000.0,6520.299999999999
767000.0,5627000.0,6574.700000000001
768000.0,5627000.0,6707.5
769000.0,5627000.0,6836.800000000001
770000.0,5627000.0,6743.099999999999
771000.0,5627000.0,7368.0
772000.0,5627000.0,7509.200000000001
773000.0,5627000.0,7975.1
774000.0,5627000.0,7535.299999999999
775000.0,5627000.0,6955.599999999999
776000.0,5627000.0,6951.900000000001
777000.0,5627000.0,7061.1
778000.0,5627000.0,7576.5
779000.0,5627000.0,8114.700000000001
780000.0,5627000.0,8472.2
781000.0,5627000.0,7772.1
782000.0,5627000.0,7342.6
783000.0,5627000.0,7606.700000000001
784000.0,5627000.0,6654.400000000001
785000.0,5627000.0,6983.4
786000.0,5627000.0,6845.699999999999
787000.0,5627000.0,7210.5
788000.0,5627000.0,7480.4
789000.0,5627000.0,8233.4
790000.0,5627000.0,8713.0
791000.0,5627000.0,8154.700000000001
792000.0,5627000.0,8106.7
793000.0,5627000.0,7915.8
794000.0,5627000.0,8283.0
795000.0,5627000.0,8021.799999999999
796000.0,5627000.0,7407.5
797000.0,5627000.0,7297.5
798000.0,5627000.0,7191.800000000001
799000.0,5627000.0,7816.2
800000.0,5627000.0,7976.5
801000.0,5627000.0,7933.3
802000.0,5627000.0,8193.0
803000.0,5627000.0,8563.7
804000.0,5627000.0,8482.3
805000.0,5627000.0,8498.099999999999
806000.0,5627000.0,8683.6
807000.0,5627000.0,8790.5
808000.0,5627000.0,8731.900000000001
809000.0,5627000.0,9041.8
810000.0,5627000.0,9131.3
811000.0,5627000.0,8778.0
812000.0,5627000.0,9268.5
813000.0,5627000.0,9492.1
814000.0,5627000.0,9357.6
815000.0,5627000.0,9824.199999999999
816000.0,5627000.0,9334.1
817000.0,5627000.0,8885.7
818000.0,5627000.0,9004.7
819000.0,5627000.0,9189.3
820000.0,5627000.0,8603.4
728000.0,5626000.0,6179.15
729000.0,5626000.0,6165.5
730000.0,5626000.0,6235.0
731000.0,5626000.0,5910.799999999999
732000.0,5626000.0,5823.299999999999
733000.0,5626000.0,5944.300000000001
734000.0,5626000.0,5834.8
735000.0,5626000.0,6066.5
736000.0,5626000.0,6124.8
737000.0,5626000.0,5793.0
738000.0,5626000.0,5357.3
739000.0,5626000.0,5935.4
740000.0,5626000.0,5875.9
741000.0,5626000.0,6071.5
742000.0,5626000.0,6109.9
743000.0,5626000.0,6168.9
744000.0,5626000.0,5731.1
745000.0,5626000.0,5508.199999999999
746000.0,5626000.0,5273.6
747000.0,5626000.0,5486.1
748000.0,5626000.0,5803.7
749000.0,5626000.0,5874.200000000001
750000.0,5626000.0,6155.4
751000.0,5626000.0,6431.0
752000.0,5626000.0,6173.199999999999
753000.0,5626000.0,6098.299999999999
754000.0,5626000.0,6650.4
755000.0,5626000.0,6343.099999999999
756000.0,5626000.0,6798.199999999999
757000.0,5626000.0,6790.599999999999
758000.0,5626000.0,6644.200000000001
759000.0,5626000.0,6689.6
760000.0,5626000.0,7188.5
761000.0,5626000.0,6459.8
762000.0,5626000.0,6198.6
763000.0,5626000.0,6775.599999999999
764000.0,5626000.0,6709.0
765000.0,5626000.0,6870.5
766000.0,5626000.0,6622.9
767000.0,5626000.0,6768.9
768000.0,5626000.0,7088.199999999999
769000.0,5626000.0,7225.5
770000.0,5626000.0,7398.199999999999
771000.0,5626000.0,7777.6
772000.0,5626000.0,7863.3
773000.0,5626000.0,7693.4
774000.0,5626000.0,7159.0
775000.0,5626000.0,7028.099999999999
776000.0,5626000.0,7851.7
777000.0,5626000.0,7430.5
778000.0,5626000.0,8257.9
779000.0,5626000.0,8232.5
780000.0,5626000.0,7627.7
781000.0,5626000.0,7370.2
782000.0,5626000.0,6688.5
783000.0,5626000.0,6468.6
784000.0,5626000.0,7116.700000000001
785000.0,5626000.0,7281.800000000001
786000.0,5626000.0,6840.699999999999
787000.0,5626000.0,7740.299999999999
788000.0,5626000.0,8304.7
789000.0,5626000.0,8470.2
790000.0,5626000.0,8597.6
791000.0,5626000.0,8254.5
792000.0,5626000.0,8510.2
793000.0,5626000.0,7901.0
794000.0,5626000.0,8917.4
795000.0,5626000.0,8284.199999999999
796000.0,5626000.0,7917.799999999999
797000.0,5626000.0,7213.5
798000.0,5626000.0,6619.1
799000.0,5626000.0,7262.7
800000.0,5626000.0,7954.5
801000.0,5626000.0,8284.0
802000.0,5626000.0,8134.400000000001
803000.0,5626000.0,8150.0
804000.0,5626000.0,8134.299999999999
805000.0,5626000.0,8607.6
806000.0,5626000.0,8609.5
807000.0,5626000.0,8400.9
808000.0,5626000.0,8464.400000000001
809000.0,5626000.0,8441.6
810000.0,5626000.0,8657.2
811000.0,5626000.0,9140.800000000001
812000.0,5626000.0,9296.5
813000.0,5626000.0,9144.1
814000.0,5626000.0,9456.900000000001
815000.0,5626000.0,9847.4
816000.0,5626000.0,9327.1
817000.0,5626000.0,8658.8
818000.0,5626000.0,8588.2
819000.0,5626000.0,8790.0
731000.0,5625000.0,6091.5
732000.0,5625000.0,6206.800000000001
733000.0,5625000.0,6085.1
734000.0,5625000.0,6056.1
735000.0,5625000.0,5843.199999999999
736000.0,5625000.0,5892.5
737000.0,5625000.0,5648.199999999999
738000.0,5625000.0,5463.199999999999
739000.0,5625000.0,5958.4
740000.0,5625000.0,6150.1
741000.0,5625000.0,6481.0
742000.0,5625000.0,6198.8
743000.0,5625000.0,5862.3
744000.0,5625000.0,5866.4
745000.0,5625000.0,5576.0
746000.0,5625000.0,5318.199999999999
747000.0,5625000.0,5260.699999999999
748000.0,5625000.0,5819.400000000001
749000.0,5625000.0,5999.200000000001
750000.0,5625000.0,6206.900000000001
751000.0,5625000.0,6437.9
752000.0,5625000.0,6219.5
753000.0,5625000.0,6056.800000000001
754000.0,5625000.0,6077.6
755000.0,5625000.0,6633.7
756000.0,5625000.0,6740.2
757000.0,5625000.0,6826.800000000001
758000.0,5625000.0,7054.8
759000.0,5625000.0,6954.0
760000.0,5625000.0,6598.0
761000.0,5625000.0,6725.799999999999
762000.0,5625000.0,6634.9
763000.0,5625000.0,6729.0
764000.0,5625000.0,6665.699999999999
765000.0,5625000.0,6914.5
766000.0,5625000.0,7243.4
767000.0,5625000.0,6914.200000000001
768000.0,5625000.0,6887.799999999999
769000.0,5625000.0,7153.299999999999
770000.0,5625000.0,7863.200000000001
771000.0,5625000.0,7961.4
772000.0,5625000.0,7400.1
773000.0,5625000.0,7252.4
774000.0,5625000.0,7020.0
775000.0,5625000.0,7889.099999999999
776000.0,5625000.0,7765.9
777000.0,5625000.0,7813.9
778000.0,5625000.0,8124.9
779000.0,5625000.0,8042.6
780000.0,5625000.0,7435.699999999999
781000.0,5625000.0,7322.4
782000.0,5625000.0,6803.6
783000.0,5625000.0,7555.0
784000.0,5625000.0,7329.8
785000.0,5625000.0,7010.5
786000.0,5625000.0,6321.2
787000.0,5625000.0,6811.6
788000.0,5625000.0,7668.8
789000.0,5625000.0,8096.5
790000.0,5625000.0,8612.5
791000.0,5625000.0,8492.8
792000.0,5625000.0,8686.1
793000.0,5625000.0,7963.3
794000.0,5625000.0,8807.5
795000.0,5625000.0,8418.0
796000.0,5625000.0,7916.7
797000.0,5625000.0,7828.7
798000.0,5625000.0,7309.9
799000.0,5625000.0,6698.4
800000.0,5625000.0,7125.2
801000.0,5625000.0,8050.2
802000.0,5625000.0,7713.5
803000.0,5625000.0,8099.5
804000.0,5625000.0,8314.400000000001
805000.0,5625000.0,8122.6
806000.0,5625000.0,8191.2
807000.0,5625000.0,8240.599999999999
808000.0,5625000.0,7959.8
809000.0,5625000.0,8273.300000000001
810000.0,5625000.0,8519.3
811000.0,5625000.0,9187.5
812000.0,5625000.0,9267.2
813000.0,5625000.0,8724.400000000001
814000.0,5625000.0,9125.4
815000.0,5625000.0,9142.8
816000.0,5625000.0,8780.5
817000.0,5625000.0,8175.8
818000.0,5625000.0,8658.6
819000.0,5625000.0,9564.7
820000.0,5625000.0,10097.3
731000.0,5624000.0,6184.490000000001
732000.0,5624000.0,6591.900000000001
733000.0,5624000.0,6137.6
734000.0,5624000.0,6091.1
735000.0,5624000.0,5865.0
736000.0,5624000.0,5711.2
737000.0,5624000.0,5661.6
738000.0,5624000.0,5673.099999999999
739000.0,5624000.0,5832.9
740000.0,5624000.0,6013.5
741000.0,5624000.0,5917.7
742000.0,5624000.0,6067.3
743000.0,5624000.0,5759.0
744000.0,5624000.0,5564.8
745000.0,5624000.0,5532.1
746000.0,5624000.0,5393.5
747000.0,5624000.0,5273.0
748000.0,5624000.0,5544.400000000001
749000.0,5624000.0,5670.2
750000.0,5624000.0,6174.300000000001
751000.0,5624000.0,6588.8
752000.0,5624000.0,6419.200000000001
753000.0,5624000.0,6365.599999999999
754000.0,5624000.0,6354.400000000001
755000.0,5624000.0,6020.799999999999
756000.0,5624000.0,6598.4
757000.0,5624000.0,6620.0
758000.0,5624000.0,6822.3
759000.0,5624000.0,7023.4
760000.0,5624000.0,6875.9
761000.0,5624000.0,7036.700000000001
762000.0,5624000.0,6994.1
763000.0,5624000.0,6942.0
764000.0,5624000.0,6818.7
765000.0,5624000.0,7243.199999999999
766000.0,5624000.0,7202.9
767000.0,5624000.0,6887.200000000001
768000.0,5624000.0,7718.7
769000.0,5624000.0,7647.1
770000.0,5624000.0,8220.0
771000.0,5624000.0,7710.9
772000.0,5624000.0,7073.8
773000.0,5624000.0,7928.6
774000.0,5624000.0,7327.799999999999
775000.0,5624000.0,7895.299999999999
776000.0,5624000.0,8595.599999999999
777000.0,5624000.0,8262.5
778000.0,5624000.0,8397.5
779000.0,5624000.0,8241.6
780000.0,5624000.0,7692.5
781000.0,5624000.0,7450.0
782000.0,5624000.0,6760.699999999999
783000.0,5624000.0,7492.3
784000.0,5624000.0,7283.5
785000.0,5624000.0,6858.6
786000.0,5624000.0,7509.8
787000.0,5624000.0,6846.3
788000.0,5624000.0,7489.400000000001
789000.0,5624000.0,7723.8
790000.0,5624000.0,8425.5
791000.0,5624000.0,8823.2
792000.0,5624000.0,8202.4
793000.0,5624000.0,8348.7
794000.0,5624000.0,9156.5
795000.0,5624000.0,9074.8
796000.0,5624000.0,8401.4
797000.0,5624000.0,8456.3
798000.0,5624000.0,7099.700000000001
799000.0,5624000.0,7826.1
800000.0,5624000.0,6717.1
801000.0,5624000.0,6769.9
802000.0,5624000.0,7331.6
803000.0,5624000.0,7879.2
804000.0,5624000.0,8284.7
805000.0,5624000.0,7554.300000000001
806000.0,5624000.0,7615.299999999999
807000.0,5624000.0,8475.599999999999
808000.0,5624000.0,8627.3
809000.0,5624000.0,8767.7
810000.0,5624000.0,9127.9
811000.0,5624000.0,9006.0
812000.0,5624000.0,8870.7
813000.0,5624000.0,8251.900000000001
814000.0,5624000.0,9334.400000000001
815000.0,5624000.0,8461.5
816000.0,5624000.0,8039.0
817000.0,5624000.0,9085.599999999999
818000.0,5624000.0,9498.6
819000.0,5624000.0,9713.6
820000.0,5624000.0,10510.0
730000.0,5623000.0,6298.109999999999
731000.0,5623000.0,6524.300000000001
732000.0,5623000.0,6439.5
733000.0,5623000.0,6084.1
734000.0,5623000.0,6027.200000000001
735000.0,5623000.0,5936.900000000001
736000.0,5623000.0,5973.6
737000.0,5623000.0,5881.4
738000.0,5623000.0,5581.0
739000.0,5623000.0,5601.2
740000.0,5623000.0,5710.4
741000.0,5623000.0,6014.700000000001
742000.0,5623000.0,5964.700000000001
743000.0,5623000.0,5710.9
744000.0,5623000.0,5662.4
745000.0,5623000.0,5558.6
746000.0,5623000.0,5479.8
747000.0,5623000.0,5287.9
748000.0,5623000.0,5489.300000000001
749000.0,5623000.0,5857.6
750000.0,5623000.0,5701.1
751000.0,5623000.0,6299.200000000001
752000.0,5623000.0,6572.4
753000.0,5623000.0,6836.5
754000.0,5623000.0,6640.9
755000.0,5623000.0,6351.1
756000.0,5623000.0,6681.0
757000.0,5623000.0,6747.1
758000.0,5623000.0,7222.1
759000.0,5623000.0,7516.700000000001
760000.0,5623000.0,7445.5
761000.0,5623000.0,7263.8
762000.0,5623000.0,7161.6
763000.0,5623000.0,6863.0
764000.0,5623000.0,7206.2
765000.0,5623000.0,7626.700000000001
766000.0,5623000.0,7024.1
767000.0,5623000.0,7183.199999999999
768000.0,5623000.0,8022.1
769000.0,5623000.0,7913.9
770000.0,5623000.0,7842.6
771000.0,5623000.0,7693.5
772000.0,5623000.0,7565.699999999999
773000.0,5623000.0,7923.099999999999
774000.0,5623000.0,7837.0
775000.0,5623000.0,7872.5
776000.0,5623000.0,8220.800000000001
777000.0,5623000.0,8921.0
778000.0,5623000.0,8742.0
779000.0,5623000.0,8369.5
780000.0,5623000.0,8235.4
781000.0,5623000.0,7794.400000000001
782000.0,5623000.0,7870.4
783000.0,5623000.0,7627.6
784000.0,5623000.0,7577.1
785000.0,5623000.0,7178.7
786000.0,5623000.0,7360.299999999999
787000.0,5623000.0,6993.099999999999
788000.0,5623000.0,7403.099999999999
789000.0,5623000.0,7604.8
790000.0,5623000.0,8082.7
791000.0,5623000.0,8964.400000000001
792000.0,5623000.0,8554.3
793000.0,5623000.0,8545.9
794000.0,5623000.0,9020.599999999999
795000.0,5623000.0,8687.5
796000.0,5623000.0,8180.8
797000.0,5623000.0,7549.700000000001
798000.0,5623000.0,8038.7
799000.0,5623000.0,8425.800000000001
800000.0,5623000.0,7845.8
801000.0,5623000.0,7636.6
802000.0,5623000.0,6882.6
803000.0,5623000.0,6944.9
804000.0,5623000.0,7366.800000000001
805000.0,5623000.0,7271.700000000001
806000.0,5623000.0,8312.8
807000.0,5623000.0,8416.6
808000.0,5623000.0,8740.599999999999
809000.0,5623000.0,9150.0
810000.0,5623000.0,9224.5
811000.0,5623000.0,8642.1
812000.0,5623000.0,8545.7
813000.0,5623000.0,8893.300000000001
814000.0,5623000.0,8696.5
815000.0,5623000.0,7929.6
816000.0,5623000.0,8515.5
817000.0,5623000.0,9306.2
818000.0,5623000.0,10309.5
819000.0,5623000.0,10761.300000000001
820000.0,5623000.0,10710.5
731000.0,5622000.0,6780.5
732000.0,5622000.0,6524.1
733000.0,5622000.0,6450.0
734000.0,5622000.0,6249.9
735000.0,5622000.0,6062.7
736000.0,5622000.0,5955.0
737000.0,5622000.0,5774.9
738000.0,5622000.0,5643.8
739000.0,5622000.0,5710.4
740000.0,5622000.0,5995.9
741000.0,5622000.0,5878.5
742000.0,5622000.0,5996.6
743000.0,5622000.0,5875.299999999999
744000.0,5622000.0,5733.4
745000.0,5622000.0,5812.4
746000.0,5622000.0,5739.700000000001
747000.0,5622000.0,5279.9
748000.0,5622000.0,5808.8
749000.0,5622000.0,6010.2
750000.0,5622000.0,6001.6
751000.0,5622000.0,5992.3
752000.0,5622000.0,5949.0
753000.0,5622000.0,6323.6
754000.0,5622000.0,6830.599999999999
755000.0,5622000.0,6683.4
756000.0,5622000.0,6951.4
757000.0,5622000.0,7177.7
758000.0,5622000.0,7257.200000000001
759000.0,5622000.0,6835.4
760000.0,5622000.0,7160.5
761000.0,5622000.0,7387.1
762000.0,5622000.0,7202.200000000001
763000.0,5622000.0,7069.1
764000.0,5622000.0,7451.5
765000.0,5622000.0,7196.4
766000.0,5622000.0,7222.7
767000.0,5622000.0,7425.2
768000.0,5622000.0,8080.5
769000.0,5622000.0,8120.299999999999
770000.0,5622000.0,7840.2
771000.0,5622000.0,7708.0
772000.0,5622000.0,7905.1
773000.0,5622000.0,8496.8
774000.0,5622000.0,7988.200000000001
775000.0,5622000.0,8680.2
776000.0,5622000.0,8478.099999999999
777000.0,5622000.0,8655.9
778000.0,5622000.0,8369.6
779000.0,5622000.0,8392.7
780000.0,5622000.0,7953.3
781000.0,5622000.0,7858.200000000001
782000.0,5622000.0,7715.599999999999
783000.0,5622000.0,7940.5
784000.0,5622000.0,7083.7
785000.0,5622000.0,7940.2
786000.0,5622000.0,7028.5
787000.0,5622000.0,6997.7
788000.0,5622000.0,7463.8
789000.0,5622000.0,8114.700000000001
790000.0,5622000.0,8352.8
791000.0,5622000.0,8698.9
792000.0,5622000.0,8612.4
793000.0,5622000.0,9068.5
794000.0,5622000.0,9045.0
795000.0,5622000.0,8587.2
796000.0,5622000.0,8471.1
797000.0,5622000.0,8501.0
798000.0,5622000.0,8244.400000000001
799000.0,5622000.0,8635.2
800000.0,5622000.0,8740.3
801000.0,5622000.0,8299.0
802000.0,5622000.0,7734.9
803000.0,5622000.0,7586.0
804000.0,5622000.0,6991.1
805000.0,5622000.0,7095.4
806000.0,5622000.0,7566.6
807000.0,5622000.0,8426.0
808000.0,5622000.0,8429.6
809000.0,5622000.0,9254.0
810000.0,5622000.0,9534.5
811000.0,5622000.0,8157.6
812000.0,5622000.0,8018.200000000001
813000.0,5622000.0,7908.099999999999
814000.0,5622000.0,7891.2
815000.0,5622000.0,9250.9
816000.0,5622000.0,9568.099999999999
817000.0,5622000.0,8967.0
818000.0,5622000.0,9750.4
819000.0,5622000.0,10840.8
731000.0,5621000.0,6647.200000000001
732000.0,5621000.0,6462.3
733000.0,5621000.0,6287.3
734000.0,5621000.0,6292.5
735000.0,5621000.0,6065.699999999999
736000.0,5621000.0,6090.799999999999
737000.0,5621000.0,5899.200000000001
738000.0,5621000.0,6071.700000000001
739000.0,5621000.0,5682.6
740000.0,5621000.0,6199.300000000001
741000.0,5621000.0,6130.2
742000.0,5621000.0,5912.200000000001
743000.0,5621000.0,6219.1
744000.0,5621000.0,6255.2
745000.0,5621000.0,5970.4
746000.0,5621000.0,6065.5
747000.0,5621000.0,5372.5
748000.0,5621000.0,5505.9
749000.0,5621000.0,5830.4
750000.0,5621000.0,6182.7
751000.0,5621000.0,6161.6
752000.0,5621000.0,6405.2
753000.0,5621000.0,6372.200000000001
754000.0,5621000.0,6515.2
755000.0,5621000.0,6729.5
756000.0,5621000.0,6939.400000000001
757000.0,5621000.0,7107.799999999999
758000.0,5621000.0,7187.3
759000.0,5621000.0,6721.900000000001
760000.0,5621000.0,7210.4
761000.0,5621000.0,7151.700000000001
762000.0,5621000.0,7231.4
763000.0,5621000.0,7269.300000000001
764000.0,5621000.0,7494.9
765000.0,5621000.0,7695.2
766000.0,5621000.0,7293.8
767000.0,5621000.0,7779.6
768000.0,5621000.0,7782.799999999999
769000.0,5621000.0,8266.6
770000.0,5621000.0,8281.5
771000.0,5621000.0,7994.2
772000.0,5621000.0,7500.4
773000.0,5621000.0,8043.5
774000.0,5621000.0,8069.8
775000.0,5621000.0,8470.1
776000.0,5621000.0,8489.1
777000.0,5621000.0,8904.3
778000.0,5621000.0,8683.300000000001
779000.0,5621000.0,7779.299999999999
780000.0,5621000.0,8180.0
781000.0,5621000.0,7369.400000000001
782000.0,5621000.0,7759.0
783000.0,5621000.0,7955.4
784000.0,5621000.0,7500.4
785000.0,5621000.0,7725.599999999999
786000.0,5621000.0,7232.200000000001
787000.0,5621000.0,6733.299999999999
788000.0,5621000.0,7047.4
789000.0,5621000.0,7922.0
790000.0,5621000.0,8207.3
791000.0,5621000.0,8925.3
792000.0,5621000.0,8996.4
793000.0,5621000.0,8830.9
794000.0,5621000.0,8875.4
795000.0,5621000.0,8978.300000000001
796000.0,5621000.0,8768.4
797000.0,5621000.0,8149.700000000001
798000.0,5621000.0,7677.9
799000.0,5621000.0,8462.7
800000.0,5621000.0,9012.5
801000.0,5621000.0,9467.2
802000.0,5621000.0,9124.6
803000.0,5621000.0,8399.8
804000.0,5621000.0,7704.1
805000.0,5621000.0,7297.4
806000.0,5621000.0,7283.099999999999
807000.0,5621000.0,7485.9
808000.0,5621000.0,8104.099999999999
809000.0,5621000.0,8157.7
810000.0,5621000.0,8674.6
811000.0,5621000.0,8276.4
812000.0,5621000.0,8115.8
813000.0,5621000.0,8800.3
814000.0,5621000.0,8714.400000000001
815000.0,5621000.0,9458.7
816000.0,5621000.0,9864.6
817000.0,5621000.0,9578.2
818000.0,5621000.0,10639.3
732000.0,5620000.0,6381.0
733000.0,5620000.0,6220.2
734000.0,5620000.0,6522.4
735000.0,5620000.0,6219.200000000001
736000.0,5620000.0,6204.8
737000.0,5620000.0,5872.799999999999
738000.0,5620000.0,6111.700000000001
739000.0,5620000.0,6182.1
740000.0,5620000.0,6092.4
741000.0,5620000.0,6274.200000000001
742000.0,5620000.0,6386.6
743000.0,5620000.0,6252.799999999999
744000.0,5620000.0,6272.0
745000.0,5620000.0,6329.200000000001
746000.0,5620000.0,6406.3
747000.0,5620000.0,6103.8
748000.0,5620000.0,5603.5
749000.0,5620000.0,6033.7
750000.0,5620000.0,5696.2
751000.0,5620000.0,6074.300000000001
752000.0,5620000.0,6441.5
753000.0,5620000.0,6451.5
754000.0,5620000.0,6321.3
755000.0,5620000.0,6155.699999999999
756000.0,5620000.0,6455.599999999999
757000.0,5620000.0,6663.199999999999
758000.0,5620000.0,6507.3
759000.0,5620000.0,6433.299999999999
760000.0,5620000.0,6710.4
761000.0,5620000.0,7121.4
762000.0,5620000.0,7141.0
763000.0,5620000.0,7570.5
764000.0,5620000.0,7642.200000000001
765000.0,5620000.0,7952.4
766000.0,5620000.0,7553.8
767000.0,5620000.0,8533.0
768000.0,5620000.0,8632.0
769000.0,5620000.0,8386.3
770000.0,5620000.0,8169.700000000001
771000.0,5620000.0,7475.2
772000.0,5620000.0,8017.3
773000.0,5620000.0,8310.800000000001
774000.0,5620000.0,8443.300000000001
775000.0,5620000.0,8678.9
776000.0,5620000.0,9099.1
777000.0,5620000.0,8359.1
778000.0,5620000.0,8108.099999999999
779000.0,5620000.0,8111.1
780000.0,5620000.0,7897.1
781000.0,5620000.0,8293.0
782000.0,5620000.0,8102.3
783000.0,5620000.0,7925.4
784000.0,5620000.0,8066.4
785000.0,5620000.0,7653.4
786000.0,5620000.0,7387.9
787000.0,5620000.0,6880.799999999999
788000.0,5620000.0,7156.0
789000.0,5620000.0,7484.300000000001
790000.0,5620000.0,8412.5
791000.0,5620000.0,9048.8
792000.0,5620000.0,9330.5
793000.0,5620000.0,9093.8
794000.0,5620000.0,8957.6
795000.0,5620000.0,8399.1
796000.0,5620000.0,8748.099999999999
797000.0,5620000.0,8447.5
798000.0,5620000.0,8314.7
799000.0,5620000.0,8788.8
800000.0,5620000.0,8760.1
801000.0,5620000.0,9058.6
802000.0,5620000.0,9425.2
803000.0,5620000.0,8644.0
804000.0,5620000.0,8805.0
805000.0,5620000.0,8737.4
806000.0,5620000.0,8367.1
807000.0,5620000.0,7596.5
808000.0,5620000.0,7263.5
810000.0,5620000.0,7853.6
811000.0,5620000.0,8094.6
812000.0,5620000.0,9036.900000000001
813000.0,5620000.0,9675.9
814000.0,5620000.0,8878.099999999999
815000.0,5620000.0,9187.6
816000.0,5620000.0,9616.900000000001
817000.0,5620000.0,10197.4
818000.0,5620000.0,9972.8
819000.0,5620000.0,10350.2
735000.0,5619000.0,6301.4
736000.0,5619000.0,6250.9
737000.0,5619000.0,6271.700000000001
738000.0,5619000.0,6153.0
739000.0,5619000.0,6180.1
740000.0,5619000.0,6333.7
741000.0,5619000.0,6391.6
742000.0,5619000.0,6476.3
743000.0,5619000.0,6637.799999999999
744000.0,5619000.0,6617.4
745000.0,5619000.0,6588.5
746000.0,5619000.0,6537.6
747000.0,5619000.0,6444.300000000001
748000.0,5619000.0,5900.2
749000.0,5619000.0,5712.0
750000.0,5619000.0,5459.200000000001
751000.0,5619000.0,6081.3
752000.0,5619000.0,6390.9
753000.0,5619000.0,6325.5
754000.0,5619000.0,6212.1
755000.0,5619000.0,5936.6
756000.0,5619000.0,6300.599999999999
757000.0,5619000.0,6431.5
758000.0,5619000.0,6804.1
759000.0,5619000.0,6522.4
760000.0,5619000.0,6529.200000000001
761000.0,5619000.0,7247.4
762000.0,5619000.0,7311.4
763000.0,5619000.0,7459.6
764000.0,5619000.0,7813.7
765000.0,5619000.0,8190.1
766000.0,5619000.0,8504.199999999999
767000.0,5619000.0,8568.099999999999
768000.0,5619000.0,8186.900000000001
769000.0,5619000.0,8097.9
770000.0,5619000.0,7891.799999999999
771000.0,5619000.0,7401.6
772000.0,5619000.0,7805.700000000001
773000.0,5619000.0,8876.6
774000.0,5619000.0,9196.6
775000.0,5619000.0,9323.6
776000.0,5619000.0,9203.9
777000.0,5619000.0,9098.099999999999
778000.0,5619000.0,8988.9
779000.0,5619000.0,9029.6
780000.0,5619000.0,8340.7
781000.0,5619000.0,8071.1
782000.0,5619000.0,8658.300000000001
783000.0,5619000.0,8364.5
784000.0,5619000.0,8062.7
785000.0,5619000.0,8308.2
786000.0,5619000.0,7525.599999999999
787000.0,5619000.0,6726.5
788000.0,5619000.0,7595.9
789000.0,5619000.0,8012.200000000001
790000.0,5619000.0,8162.200000000001
791000.0,5619000.0,8713.300000000001
792000.0,5619000.0,9043.7
793000.0,5619000.0,8883.300000000001
794000.0,5619000.0,8540.5
795000.0,5619000.0,8571.900000000001
796000.0,5619000.0,8772.2
797000.0,5619000.0,8681.6
798000.0,5619000.0,8390.800000000001
799000.0,5619000.0,7953.7
800000.0,5619000.0,9640.7
801000.0,5619000.0,9160.800000000001
802000.0,5619000.0,9495.5
803000.0,5619000.0,9062.9
804000.0,5619000.0,9097.7
805000.0,5619000.0,8502.9
806000.0,5619000.0,7976.2
807000.0,5619000.0,8497.3
808000.0,5619000.0,8821.900000000001
809000.0,5619000.0,7480.4
811000.0,5619000.0,7859.8
812000.0,5619000.0,9082.4
813000.0,5619000.0,8443.8
814000.0,5619000.0,9613.9
815000.0,5619000.0,9606.3
816000.0,5619000.0,10206.2
817000.0,5619000.0,10067.5
818000.0,5619000.0,9860.7
735000.0,5618000.0,6480.9
736000.0,5618000.0,6433.7
737000.0,5618000.0,6363.4
738000.0,5618000.0,6252.0
739000.0,5618000.0,6432.5
740000.0,5618000.0,6521.700000000001
741000.0,5618000.0,6587.7
742000.0,5618000.0,6827.1
743000.0,5618000.0,6437.7
744000.0,5618000.0,6543.8
745000.0,5618000.0,6326.2
746000.0,5618000.0,6410.0
747000.0,5618000.0,5945.9
748000.0,5618000.0,5908.6
749000.0,5618000.0,5713.0
750000.0,5618000.0,5979.1
751000.0,5618000.0,5699.0
752000.0,5618000.0,5674.200000000001
753000.0,5618000.0,5710.599999999999
754000.0,5618000.0,6653.7
755000.0,5618000.0,6486.900000000001
756000.0,5618000.0,6801.5
757000.0,5618000.0,6416.700000000001
758000.0,5618000.0,6537.1
759000.0,5618000.0,6240.299999999999
760000.0,5618000.0,6792.200000000001
761000.0,5618000.0,7549.6
762000.0,5618000.0,7782.7
763000.0,5618000.0,7809.5
764000.0,5618000.0,7920.8
765000.0,5618000.0,8314.7
766000.0,5618000.0,8499.8
767000.0,5618000.0,8438.8
768000.0,5618000.0,8220.599999999999
769000.0,5618000.0,7896.799999999999
770000.0,5618000.0,7894.9
771000.0,5618000.0,7636.800000000001
772000.0,5618000.0,8364.400000000001
773000.0,5618000.0,9121.5
774000.0,5618000.0,9378.9
775000.0,5618000.0,9124.8
776000.0,5618000.0,8940.9
777000.0,5618000.0,9101.1
778000.0,5618000.0,9657.4
779000.0,5618000.0,8902.0
780000.0,5618000.0,8384.8
781000.0,5618000.0,8431.8
782000.0,5618000.0,8610.0
783000.0,5618000.0,8781.8
784000.0,5618000.0,8397.4
785000.0,5618000.0,8329.8
786000.0,5618000.0,7780.2
787000.0,5618000.0,7189.6
788000.0,5618000.0,7670.2
789000.0,5618000.0,8096.599999999999
790000.0,5618000.0,8159.400000000001
791000.0,5618000.0,8856.5
792000.0,5618000.0,9410.800000000001
793000.0,5618000.0,8977.3
794000.0,5618000.0,8892.4
795000.0,5618000.0,9350.599999999999
796000.0,5618000.0,8869.8
797000.0,5618000.0,8855.7
798000.0,5618000.0,8643.5
799000.0,5618000.0,9643.2
800000.0,5618000.0,8543.6
801000.0,5618000.0,9869.400000000001
802000.0,5618000.0,9900.9
803000.0,5618000.0,9520.3
804000.0,5618000.0,10027.9
805000.0,5618000.0,9413.0
806000.0,5618000.0,9407.2
807000.0,5618000.0,9364.0
808000.0,5618000.0,9846.0
809000.0,5618000.0,9083.4
812000.0,5618000.0,8307.0
813000.0,5618000.0,9060.1
814000.0,5618000.0,9211.0
815000.0,5618000.0,9508.7
816000.0,5618000.0,10542.8
817000.0,5618000.0,9859.199999999999
734000.0,5617000.0,6641.700000000001
735000.0,5617000.0,6767.3
736000.0,5617000.0,6424.5
737000.0,5617000.0,6250.2
738000.0,5617000.0,6678.4
739000.0,5617000.0,6788.7
740000.0,5617000.0,6770.9
741000.0,5617000.0,6712.0
742000.0,5617000.0,6744.700000000001
743000.0,5617000.0,6756.0
744000.0,5617000.0,6843.0
745000.0,5617000.0,6872.1
746000.0,5617000.0,6542.5
747000.0,5617000.0,6720.599999999999
748000.0,5617000.0,6546.0
749000.0,5617000.0,5634.9
750000.0,5617000.0,6183.5
751000.0,5617000.0,6107.200000000001
752000.0,5617000.0,5900.599999999999
753000.0,5617000.0,5619.9
754000.0,5617000.0,5588.6
755000.0,5617000.0,5846.0
756000.0,5617000.0,6042.799999999999
757000.0,5617000.0,5919.1
758000.0,5617000.0,6372.799999999999
759000.0,5617000.0,5748.099999999999
760000.0,5617000.0,7005.799999999999
761000.0,5617000.0,7306.800000000001
762000.0,5617000.0,8016.799999999999
763000.0,5617000.0,8255.9
764000.0,5617000.0,8159.700000000001
765000.0,5617000.0,8186.7
766000.0,5617000.0,8138.5
767000.0,5617000.0,8744.1
768000.0,5617000.0,8756.5
769000.0,5617000.0,8246.3
770000.0,5617000.0,7617.7
771000.0,5617000.0,8234.8
772000.0,5617000.0,8962.5
773000.0,5617000.0,9725.9
774000.0,5617000.0,9603.0
775000.0,5617000.0,9617.6
776000.0,5617000.0,9238.0
777000.0,5617000.0,9143.2
778000.0,5617000.0,8624.3
779000.0,5617000.0,8593.4
780000.0,5617000.0,8572.2
781000.0,5617000.0,9087.5
782000.0,5617000.0,9300.599999999999
783000.0,5617000.0,9167.2
784000.0,5617000.0,8476.8
785000.0,5617000.0,7821.4
786000.0,5617000.0,8227.1
787000.0,5617000.0,7240.299999999999
788000.0,5617000.0,6692.9
789000.0,5617000.0,7498.9
790000.0,5617000.0,8091.599999999999
791000.0,5617000.0,8714.6
792000.0,5617000.0,9214.9
793000.0,5617000.0,9616.8
794000.0,5617000.0,9514.9
795000.0,5617000.0,9342.6
796000.0,5617000.0,9573.8
797000.0,5617000.0,9284.7
798000.0,5617000.0,8733.6
799000.0,5617000.0,9889.1
800000.0,5617000.0,9358.8
801000.0,5617000.0,10654.400000000001
802000.0,5617000.0,10449.6
803000.0,5617000.0,10339.6
804000.0,5617000.0,10393.400000000001
805000.0,5617000.0,10213.4
806000.0,5617000.0,9858.4
807000.0,5617000.0,9414.1
808000.0,5617000.0,9577.9
813000.0,5617000.0,8495.0
814000.0,5617000.0,9385.7
815000.0,5617000.0,9906.8
816000.0,5617000.0,9916.8
817000.0,5617000.0,9374.3
733000.0,5616000.0,7182.799999999999
734000.0,5616000.0,7031.700000000001
735000.0,5616000.0,6764.6
736000.0,5616000.0,6707.4
737000.0,5616000.0,6564.8
738000.0,5616000.0,6797.7
739000.0,5616000.0,6953.5
740000.0,5616000.0,7129.5
741000.0,5616000.0,7085.4
742000.0,5616000.0,7257.0
743000.0,5616000.0,7059.0
744000.0,5616000.0,7214.1
745000.0,5616000.0,6547.200000000001
746000.0,5616000.0,6671.1
747000.0,5616000.0,6430.4
748000.0,5616000.0,5998.199999999999
749000.0,5616000.0,6337.7
750000.0,5616000.0,6877.9
751000.0,5616000.0,6629.300000000001
752000.0,5616000.0,6473.6
753000.0,5616000.0,6304.6
754000.0,5616000.0,6213.299999999999
755000.0,5616000.0,6301.2
756000.0,5616000.0,6448.199999999999
757000.0,5616000.0,6274.6
758000.0,5616000.0,6540.0
759000.0,5616000.0,6385.4
760000.0,5616000.0,6327.799999999999
761000.0,5616000.0,6963.5
762000.0,5616000.0,7732.9
763000.0,5616000.0,7788.7
764000.0,5616000.0,7403.9
765000.0,5616000.0,7452.4
766000.0,5616000.0,8404.5
767000.0,5616000.0,8274.6
768000.0,5616000.0,8341.8
769000.0,5616000.0,7987.0
770000.0,5616000.0,8009.9
771000.0,5616000.0,8511.3
772000.0,5616000.0,9182.5
773000.0,5616000.0,9707.1
774000.0,5616000.0,10000.4
775000.0,5616000.0,9864.199999999999
776000.0,5616000.0,9550.3
777000.0,5616000.0,8876.699999999999
778000.0,5616000.0,9114.199999999999
779000.0,5616000.0,8253.5
780000.0,5616000.0,8443.0
781000.0,5616000.0,8902.7
782000.0,5616000.0,8735.7
783000.0,5616000.0,8724.6
784000.0,5616000.0,8127.0
785000.0,5616000.0,8085.5
786000.0,5616000.0,7657.6
787000.0,5616000.0,7017.200000000001
788000.0,5616000.0,7821.5
789000.0,5616000.0,6953.299999999999
790000.0,5616000.0,7801.1
791000.0,5616000.0,8240.4
792000.0,5616000.0,9393.6
793000.0,5616000.0,9751.0
794000.0,5616000.0,9928.8
795000.0,5616000.0,9590.800000000001
796000.0,5616000.0,9179.5
797000.0,5616000.0,9142.6
798000.0,5616000.0,10324.8
799000.0,5616000.0,9923.9
800000.0,5616000.0,9390.800000000001
801000.0,5616000.0,10353.0
802000.0,5616000.0,10426.100000000002
803000.0,5616000.0,10447.7
804000.0,5616000.0,10222.5
805000.0,5616000.0,10153.7
806000.0,5616000.0,9277.5
807000.0,5616000.0,9317.7
814000.0,5616000.0,8455.4
815000.0,5616000.0,9333.099999999999
816000.0,5616000.0,9703.6
731000.0,5615000.0,6873.099999999999
732000.0,5615000.0,6433.6
733000.0,5615000.0,6640.299999999999
734000.0,5615000.0,6916.800000000001
735000.0,5615000.0,7002.4
736000.0,5615000.0,6888.199999999999
737000.0,5615000.0,6992.1
738000.0,5615000.0,7109.5
739000.0,5615000.0,7347.0
740000.0,5615000.0,7193.4
741000.0,5615000.0,7149.6
742000.0,5615000.0,7080.299999999999
743000.0,5615000.0,7356.1
744000.0,5615000.0,6982.3
745000.0,5615000.0,6571.4
746000.0,5615000.0,6256.1
747000.0,5615000.0,5942.1
748000.0,5615000.0,6341.1
749000.0,5615000.0,5877.7
750000.0,5615000.0,6768.7
751000.0,5615000.0,7342.6
752000.0,5615000.0,7010.799999999999
753000.0,5615000.0,6774.200000000001
754000.0,5615000.0,6482.9
755000.0,5615000.0,6776.900000000001
756000.0,5615000.0,7296.900000000001
757000.0,5615000.0,7361.900000000001
758000.0,5615000.0,7211.700000000001
759000.0,5615000.0,6922.9
760000.0,5615000.0,6394.8
761000.0,5615000.0,6639.9
762000.0,5615000.0,7556.2
763000.0,5615000.0,7672.1
764000.0,5615000.0,7139.8
765000.0,5615000.0,7588.299999999999
766000.0,5615000.0,7858.5
767000.0,5615000.0,7677.7
768000.0,5615000.0,8212.0
769000.0,5615000.0,7975.8
770000.0,5615000.0,8394.6
771000.0,5615000.0,8068.099999999999
772000.0,5615000.0,8999.6
773000.0,5615000.0,9755.3
774000.0,5615000.0,9937.2
775000.0,5615000.0,9706.699999999999
776000.0,5615000.0,9643.300000000001
777000.0,5615000.0,9057.8
778000.0,5615000.0,8913.4
779000.0,5615000.0,8430.3
780000.0,5615000.0,7949.0
781000.0,5615000.0,8393.9
782000.0,5615000.0,8105.8
783000.0,5615000.0,7879.6
784000.0,5615000.0,7990.8
785000.0,5615000.0,7782.4
786000.0,5615000.0,7560.699999999999
787000.0,5615000.0,6943.5
788000.0,5615000.0,7670.799999999999
789000.0,5615000.0,7990.0
790000.0,5615000.0,7478.4
791000.0,5615000.0,8718.300000000001
792000.0,5615000.0,8798.9
793000.0,5615000.0,9411.2
794000.0,5615000.0,9406.5
795000.0,5615000.0,9636.6
796000.0,5615000.0,9351.4
797000.0,5615000.0,9439.6
798000.0,5615000.0,10272.3
799000.0,5615000.0,10251.300000000001
800000.0,5615000.0,9916.699999999999
801000.0,5615000.0,10071.6
802000.0,5615000.0,10248.099999999999
803000.0,5615000.0,10174.8
804000.0,5615000.0,10008.8
805000.0,5615000.0,10143.099999999999
806000.0,5615000.0,8875.800000000001
727000.0,5614000.0,5670.299999999999
730000.0,5614000.0,5760.799999999999
731000.0,5614000.0,6123.8
732000.0,5614000.0,6641.4
733000.0,5614000.0,6806.4
734000.0,5614000.0,6887.799999999999
735000.0,5614000.0,6693.7
736000.0,5614000.0,7057.7
737000.0,5614000.0,6985.4
738000.0,5614000.0,7139.1
739000.0,5614000.0,7074.300000000001
740000.0,5614000.0,6873.099999999999
741000.0,5614000.0,6805.9
742000.0,5614000.0,7092.3
743000.0,5614000.0,7050.2
744000.0,5614000.0,6803.199999999999
745000.0,5614000.0,6685.699999999999
746000.0,5614000.0,6170.9
747000.0,5614000.0,6318.199999999999
748000.0,5614000.0,6521.5
749000.0,5614000.0,6098.199999999999
750000.0,5614000.0,6515.799999999999
751000.0,5614000.0,7050.299999999999
752000.0,5614000.0,7810.4
753000.0,5614000.0,7176.1
754000.0,5614000.0,6870.599999999999
755000.0,5614000.0,7928.0
756000.0,5614000.0,8064.6
757000.0,5614000.0,7629.9
758000.0,5614000.0,7699.0
759000.0,5614000.0,7457.9
760000.0,5614000.0,6486.2
761000.0,5614000.0,6075.0
762000.0,5614000.0,7010.9
763000.0,5614000.0,7143.9
764000.0,5614000.0,6847.1
765000.0,5614000.0,7034.400000000001
766000.0,5614000.0,7501.1
767000.0,5614000.0,8013.400000000001
768000.0,5614000.0,8242.3
769000.0,5614000.0,8333.8
770000.0,5614000.0,9035.0
771000.0,5614000.0,8756.3
772000.0,5614000.0,8958.8
773000.0,5614000.0,9332.5
774000.0,5614000.0,9570.599999999999
775000.0,5614000.0,9778.099999999999
776000.0,5614000.0,9678.5
777000.0,5614000.0,9240.599999999999
778000.0,5614000.0,8285.2
779000.0,5614000.0,8134.099999999999
780000.0,5614000.0,7582.6
781000.0,5614000.0,7781.599999999999
782000.0,5614000.0,7843.400000000001
783000.0,5614000.0,7406.4
784000.0,5614000.0,7599.8
785000.0,5614000.0,7908.099999999999
786000.0,5614000.0,8081.799999999999
787000.0,5614000.0,7053.8
788000.0,5614000.0,7597.3
789000.0,5614000.0,8407.9
790000.0,5614000.0,8860.7
791000.0,5614000.0,7260.799999999999
792000.0,5614000.0,8505.9
793000.0,5614000.0,8865.3
794000.0,5614000.0,9576.0
795000.0,5614000.0,9992.0
796000.0,5614000.0,9588.9
797000.0,5614000.0,9944.3
798000.0,5614000.0,10250.599999999999
799000.0,5614000.0,10229.5
800000.0,5614000.0,9920.1
801000.0,5614000.0,9922.2
802000.0,5614000.0,10107.7
803000.0,5614000.0,10125.5
804000.0,5614000.0,9786.3
805000.0,5614000.0,9477.8
713000.0,5613000.0,6663.6
723000.0,5613000.0,6470.799999999999
724000.0,5613000.0,5616.1
726000.0,5613000.0,6201.3
727000.0,5613000.0,6178.299999999999
728000.0,5613000.0,6049.300000000001
729000.0,5613000.0,6041.1
730000.0,5613000.0,5633.099999999999
731000.0,5613000.0,6140.4
732000.0,5613000.0,6311.900000000001
733000.0,5613000.0,6521.2
734000.0,5613000.0,6154.200000000001
735000.0,5613000.0,6768.099999999999
736000.0,5613000.0,6885.2
737000.0,5613000.0,6558.099999999999
738000.0,5613000.0,6494.700000000001
739000.0,5613000.0,6900.1
740000.0,5613000.0,7069.9
741000.0,5613000.0,7154.0
742000.0,5613000.0,6955.4
743000.0,5613000.0,6710.1
744000.0,5613000.0,6819.200000000001
745000.0,5613000.0,6272.200000000001
746000.0,5613000.0,6516.0
747000.0,5613000.0,6601.6
748000.0,5613000.0,6812.3
749000.0,5613000.0,6368.4
750000.0,5613000.0,6605.699999999999
