x,y,z
640000.0,5670000.0,4612.1
641000.0,5670000.0,4618.7
642000.0,5670000.0,4572.3
643000.0,5670000.0,4369.8
644000.0,5670000.0,4073.2
645000.0,5670000.0,4048.3
646000.0,5670000.0,4035.7
647000.0,5670000.0,4024.2
648000.0,5670000.0,4071.2
649000.0,5670000.0,4051.5999999999995
650000.0,5670000.0,4100.6
651000.0,5670000.0,4064.2
652000.0,5670000.0,4058.1
653000.0,5670000.0,4059.2
654000.0,5670000.0,4033.7
655000.0,5670000.0,4028.6000000000004
656000.0,5670000.0,4134.3
657000.0,5670000.0,4137.5
658000.0,5670000.0,4096.599999999999
659000.0,5670000.0,4101.599999999999
660000.0,5670000.0,4139.2
661000.0,5670000.0,4245.2
662000.0,5670000.0,4304.4
663000.0,5670000.0,4449.8
664000.0,5670000.0,4633.0
665000.0,5670000.0,4696.9
666000.0,5670000.0,4767.9
667000.0,5670000.0,4768.6
668000.0,5670000.0,4650.6
669000.0,5670000.0,4534.2
670000.0,5670000.0,4738.8
671000.0,5670000.0,4964.5
672000.0,5670000.0,4752.5
673000.0,5670000.0,4923.0
585000.0,5669000.0,7037.9
586000.0,5669000.0,6808.8
587000.0,5669000.0,6161.700000000001
588000.0,5669000.0,6393.099999999999
589000.0,5669000.0,6901.0
590000.0,5669000.0,6837.3
591000.0,5669000.0,6801.6
592000.0,5669000.0,6343.6
593000.0,5669000.0,7181.6
594000.0,5669000.0,6905.1
595000.0,5669000.0,6590.2
596000.0,5669000.0,6461.3
597000.0,5669000.0,5710.5
598000.0,5669000.0,5150.299999999999
599000.0,5669000.0,4902.799999999999
600000.0,5669000.0,4766.3
601000.0,5669000.0,4671.9
602000.0,5669000.0,4917.9
603000.0,5669000.0,4829.9
604000.0,5669000.0,4709.2
605000.0,5669000.0,4527.7
606000.0,5669000.0,4499.9
607000.0,5669000.0,4535.900000000001
608000.0,5669000.0,4461.1
609000.0,5669000.0,4445.2
610000.0,5669000.0,4440.4
611000.0,5669000.0,4433.9
612000.0,5669000.0,4433.5
613000.0,5669000.0,4463.3
614000.0,5669000.0,4472.4
615000.0,5669000.0,4641.2
616000.0,5669000.0,5063.0
617000.0,5669000.0,5322.7
618000.0,5669000.0,5478.5
619000.0,5669000.0,5202.5
620000.0,5669000.0,5044.0
621000.0,5669000.0,4885.8
622000.0,5669000.0,4851.2
623000.0,5669000.0,4797.7
624000.0,5669000.0,4655.8
625000.0,5669000.0,4523.8
626000.0,5669000.0,4728.7
627000.0,5669000.0,4558.6
628000.0,5669000.0,4385.1
629000.0,5669000.0,4490.8
630000.0,5669000.0,4582.5
631000.0,5669000.0,4465.1
632000.0,5669000.0,4359.0
633000.0,5669000.0,4206.0
634000.0,5669000.0,4187.799999999999
635000.0,5669000.0,4331.0
636000.0,5669000.0,4396.8
637000.0,5669000.0,4336.3
638000.0,5669000.0,4101.5
639000.0,5669000.0,4096.2
640000.0,5669000.0,4090.6
641000.0,5669000.0,4098.2
642000.0,5669000.0,4101.2
643000.0,5669000.0,4108.400000000001
644000.0,5669000.0,4056.1000000000004
645000.0,5669000.0,4048.7
646000.0,5669000.0,4040.0
647000.0,5669000.0,4030.1
648000.0,5669000.0,4051.7
649000.0,5669000.0,4071.0
650000.0,5669000.0,4113.5
651000.0,5669000.0,4168.2
652000.0,5669000.0,4182.7
653000.0,5669000.0,4118.5
654000.0,5669000.0,4076.3999999999996
655000.0,5669000.0,4069.9
656000.0,5669000.0,4037.7
657000.0,5669000.0,4054.2
658000.0,5669000.0,4073.0
659000.0,5669000.0,4169.3
660000.0,5669000.0,4135.900000000001
661000.0,5669000.0,4139.0
662000.0,5669000.0,4177.799999999999
663000.0,5669000.0,4196.3
664000.0,5669000.0,4302.0
665000.0,5669000.0,4381.4
666000.0,5669000.0,4632.0
667000.0,5669000.0,4592.4
668000.0,5669000.0,4406.4
669000.0,5669000.0,4392.0
670000.0,5669000.0,4570.2
671000.0,5669000.0,4598.9
585000.0,5668000.0,5743.8
586000.0,5668000.0,6677.5
587000.0,5668000.0,6155.299999999999
588000.0,5668000.0,6487.0
589000.0,5668000.0,6398.8
590000.0,5668000.0,6776.3
591000.0,5668000.0,6489.6
592000.0,5668000.0,6716.6
593000.0,5668000.0,6875.299999999999
594000.0,5668000.0,7358.8
595000.0,5668000.0,6977.0
596000.0,5668000.0,6654.300000000001
597000.0,5668000.0,5709.1
598000.0,5668000.0,5301.5
599000.0,5668000.0,5031.4
600000.0,5668000.0,4848.5
601000.0,5668000.0,4694.8
602000.0,5668000.0,4714.0
603000.0,5668000.0,4742.6
604000.0,5668000.0,4581.5
605000.0,5668000.0,4683.2
606000.0,5668000.0,4764.9
607000.0,5668000.0,4710.8
608000.0,5668000.0,4521.7
609000.0,5668000.0,4534.5
610000.0,5668000.0,4568.9
611000.0,5668000.0,4420.6
612000.0,5668000.0,4413.8
613000.0,5668000.0,4410.7
614000.0,5668000.0,4456.7
615000.0,5668000.0,4592.7
616000.0,5668000.0,4978.9
617000.0,5668000.0,5312.6
618000.0,5668000.0,5395.1
619000.0,5668000.0,5340.699999999999
620000.0,5668000.0,5143.099999999999
621000.0,5668000.0,5016.599999999999
622000.0,5668000.0,4965.8
623000.0,5668000.0,4794.2
624000.0,5668000.0,4649.3
625000.0,5668000.0,4678.400000000001
626000.0,5668000.0,4583.0
627000.0,5668000.0,4630.5
628000.0,5668000.0,4678.0
629000.0,5668000.0,4446.5
630000.0,5668000.0,4328.6
631000.0,5668000.0,4323.1
632000.0,5668000.0,4244.0
633000.0,5668000.0,4197.0
634000.0,5668000.0,4206.599999999999
635000.0,5668000.0,4149.2
636000.0,5668000.0,4130.8
637000.0,5668000.0,4115.5
638000.0,5668000.0,4113.6
639000.0,5668000.0,4123.9
640000.0,5668000.0,4090.8
641000.0,5668000.0,4137.799999999999
642000.0,5668000.0,4076.1000000000004
643000.0,5668000.0,4067.5
644000.0,5668000.0,4058.3
645000.0,5668000.0,4049.0
646000.0,5668000.0,4044.6000000000004
647000.0,5668000.0,4152.9
648000.0,5668000.0,4132.5
649000.0,5668000.0,4106.4
650000.0,5668000.0,4245.8
651000.0,5668000.0,4340.5
652000.0,5668000.0,4490.1
653000.0,5668000.0,4548.2
654000.0,5668000.0,4301.5
655000.0,5668000.0,4228.6
656000.0,5668000.0,4280.900000000001
657000.0,5668000.0,4144.2
658000.0,5668000.0,4077.1000000000004
659000.0,5668000.0,4088.2
660000.0,5668000.0,4135.2
661000.0,5668000.0,4175.4
662000.0,5668000.0,4156.5
663000.0,5668000.0,4213.2
664000.0,5668000.0,4211.2
665000.0,5668000.0,4269.3
666000.0,5668000.0,4425.0
667000.0,5668000.0,4432.7
668000.0,5668000.0,4313.5
669000.0,5668000.0,4511.5
670000.0,5668000.0,4521.3
671000.0,5668000.0,4580.6
582000.0,5667000.0,4338.2
585000.0,5667000.0,5045.900000000001
586000.0,5667000.0,5213.199999999999
587000.0,5667000.0,5322.1
588000.0,5667000.0,6846.800000000001
589000.0,5667000.0,6866.1
590000.0,5667000.0,7023.099999999999
591000.0,5667000.0,6625.9
592000.0,5667000.0,5863.4
593000.0,5667000.0,5683.7
594000.0,5667000.0,6884.300000000001
595000.0,5667000.0,7187.9
596000.0,5667000.0,5967.1
597000.0,5667000.0,5981.900000000001
598000.0,5667000.0,5396.700000000001
599000.0,5667000.0,5146.7
600000.0,5667000.0,4969.4
601000.0,5667000.0,4826.3
602000.0,5667000.0,4718.6
603000.0,5667000.0,4712.1
604000.0,5667000.0,4807.7
605000.0,5667000.0,4826.7
606000.0,5667000.0,4861.8
607000.0,5667000.0,4735.299999999999
608000.0,5667000.0,4578.1
609000.0,5667000.0,4545.6
610000.0,5667000.0,4501.2
611000.0,5667000.0,4406.0
612000.0,5667000.0,4405.0
613000.0,5667000.0,4405.4
614000.0,5667000.0,4399.4
615000.0,5667000.0,4496.0
616000.0,5667000.0,4734.9
617000.0,5667000.0,5000.0
618000.0,5667000.0,5120.900000000001
619000.0,5667000.0,5225.2
620000.0,5667000.0,5298.8
621000.0,5667000.0,5088.6
622000.0,5667000.0,4937.4
623000.0,5667000.0,4898.1
624000.0,5667000.0,4793.8
625000.0,5667000.0,4769.099999999999
626000.0,5667000.0,4798.0
627000.0,5667000.0,4757.799999999999
628000.0,5667000.0,4568.2
629000.0,5667000.0,4337.4
630000.0,5667000.0,4210.6
631000.0,5667000.0,4194.4
632000.0,5667000.0,4170.6
633000.0,5667000.0,4152.7
634000.0,5667000.0,4147.200000000001
635000.0,5667000.0,4125.2
636000.0,5667000.0,4123.1
637000.0,5667000.0,4228.2
638000.0,5667000.0,4323.9
639000.0,5667000.0,4117.6
640000.0,5667000.0,4108.2
641000.0,5667000.0,4194.4
642000.0,5667000.0,4227.3
643000.0,5667000.0,4119.9
644000.0,5667000.0,4112.4
645000.0,5667000.0,4259.0
646000.0,5667000.0,4395.0
647000.0,5667000.0,4493.400000000001
648000.0,5667000.0,4173.7
649000.0,5667000.0,4194.4
650000.0,5667000.0,4314.0
651000.0,5667000.0,4643.3
652000.0,5667000.0,4876.8
653000.0,5667000.0,4764.4
654000.0,5667000.0,4482.9
655000.0,5667000.0,4466.9
656000.0,5667000.0,4345.8
657000.0,5667000.0,4209.0
658000.0,5667000.0,4190.299999999999
659000.0,5667000.0,4452.9
660000.0,5667000.0,4533.5
661000.0,5667000.0,4641.0
662000.0,5667000.0,4513.1
663000.0,5667000.0,4288.6
664000.0,5667000.0,4311.4
665000.0,5667000.0,4286.7
666000.0,5667000.0,4314.700000000001
667000.0,5667000.0,4314.700000000001
668000.0,5667000.0,4395.8
669000.0,5667000.0,4423.0
670000.0,5667000.0,4593.7
671000.0,5667000.0,4637.5
672000.0,5667000.0,4659.9
579000.0,5666000.0,5743.9
580000.0,5666000.0,5071.9
581000.0,5666000.0,4926.3
582000.0,5666000.0,4441.3
585000.0,5666000.0,5269.300000000001
586000.0,5666000.0,4733.0
587000.0,5666000.0,5332.9
588000.0,5666000.0,6144.8
589000.0,5666000.0,5701.800000000001
590000.0,5666000.0,6386.0
591000.0,5666000.0,6270.1
592000.0,5666000.0,6970.5
593000.0,5666000.0,5421.800000000001
594000.0,5666000.0,6720.4
595000.0,5666000.0,7116.900000000001
596000.0,5666000.0,6420.4
597000.0,5666000.0,6307.799999999999
598000.0,5666000.0,5504.6
599000.0,5666000.0,5194.8
600000.0,5666000.0,5118.0
601000.0,5666000.0,4881.599999999999
602000.0,5666000.0,4914.700000000001
603000.0,5666000.0,4903.5
604000.0,5666000.0,4855.8
605000.0,5666000.0,4743.3
606000.0,5666000.0,4614.099999999999
607000.0,5666000.0,4683.400000000001
608000.0,5666000.0,4741.7
609000.0,5666000.0,4570.6
610000.0,5666000.0,4595.6
611000.0,5666000.0,4570.7
612000.0,5666000.0,4460.7
613000.0,5666000.0,4418.400000000001
614000.0,5666000.0,4386.2
615000.0,5666000.0,4382.9
616000.0,5666000.0,4446.599999999999
617000.0,5666000.0,4568.3
618000.0,5666000.0,4910.0
619000.0,5666000.0,5043.1
620000.0,5666000.0,5170.2
621000.0,5666000.0,5292.6
622000.0,5666000.0,5133.6
623000.0,5666000.0,4955.4
624000.0,5666000.0,4680.900000000001
625000.0,5666000.0,4676.7
626000.0,5666000.0,4531.0
627000.0,5666000.0,4435.299999999999
628000.0,5666000.0,4306.0
629000.0,5666000.0,4234.8
630000.0,5666000.0,4201.3
631000.0,5666000.0,4195.0
632000.0,5666000.0,4176.2
633000.0,5666000.0,4268.2
634000.0,5666000.0,4149.5
635000.0,5666000.0,4139.099999999999
636000.0,5666000.0,4357.7
637000.0,5666000.0,4379.3
638000.0,5666000.0,4285.2
639000.0,5666000.0,4146.9
640000.0,5666000.0,4136.7
641000.0,5666000.0,4130.1
642000.0,5666000.0,4295.6
643000.0,5666000.0,4492.799999999999
644000.0,5666000.0,4397.200000000001
645000.0,5666000.0,4537.1
646000.0,5666000.0,4647.799999999999
647000.0,5666000.0,4556.0
648000.0,5666000.0,4280.7
649000.0,5666000.0,4425.5
650000.0,5666000.0,4558.7
651000.0,5666000.0,4800.0
652000.0,5666000.0,4905.5
653000.0,5666000.0,4879.5
654000.0,5666000.0,4662.9
655000.0,5666000.0,4840.900000000001
656000.0,5666000.0,4415.0
657000.0,5666000.0,4728.2
658000.0,5666000.0,4460.2
659000.0,5666000.0,4375.1
660000.0,5666000.0,4410.900000000001
661000.0,5666000.0,4244.6
662000.0,5666000.0,4293.5
663000.0,5666000.0,4268.9
664000.0,5666000.0,4361.1
665000.0,5666000.0,4498.9
666000.0,5666000.0,4418.2
667000.0,5666000.0,4509.5
668000.0,5666000.0,4615.1
669000.0,5666000.0,4459.8
670000.0,5666000.0,4710.6
671000.0,5666000.0,4603.6
672000.0,5666000.0,4473.9
680000.0,5666000.0,5215.5
733000.0,5666000.0,4111.599999999999
734000.0,5666000.0,4258.3
580000.0,5665000.0,4973.2
581000.0,5665000.0,5703.099999999999
582000.0,5665000.0,4646.1
585000.0,5665000.0,4393.5
586000.0,5665000.0,4576.3
587000.0,5665000.0,4409.3
588000.0,5665000.0,5128.9
589000.0,5665000.0,5403.4
590000.0,5665000.0,6075.4
591000.0,5665000.0,6489.0
592000.0,5665000.0,6420.2
593000.0,5665000.0,6288.0
594000.0,5665000.0,5883.0
595000.0,5665000.0,6492.200000000001
596000.0,5665000.0,7022.9
597000.0,5665000.0,6486.1
598000.0,5665000.0,5800.2
599000.0,5665000.0,5346.700000000001
600000.0,5665000.0,5176.2
601000.0,5665000.0,5077.0
602000.0,5665000.0,5082.3
603000.0,5665000.0,4991.7
604000.0,5665000.0,4721.2
605000.0,5665000.0,4978.1
606000.0,5665000.0,4924.9
607000.0,5665000.0,4671.1
608000.0,5665000.0,4607.0
609000.0,5665000.0,4529.6
610000.0,5665000.0,4679.700000000001
611000.0,5665000.0,4474.3
612000.0,5665000.0,4499.700000000001
613000.0,5665000.0,4659.2
614000.0,5665000.0,4685.4
615000.0,5665000.0,4559.099999999999
616000.0,5665000.0,4374.2
617000.0,5665000.0,4406.4
618000.0,5665000.0,4594.099999999999
619000.0,5665000.0,4816.8
620000.0,5665000.0,5296.900000000001
621000.0,5665000.0,5310.799999999999
622000.0,5665000.0,5201.1
623000.0,5665000.0,5043.8
624000.0,5665000.0,4819.5
625000.0,5665000.0,4582.5
626000.0,5665000.0,4252.7
627000.0,5665000.0,4231.7
628000.0,5665000.0,4224.099999999999
629000.0,5665000.0,4194.0
630000.0,5665000.0,4198.1
631000.0,5665000.0,4187.6
632000.0,5665000.0,4189.3
633000.0,5665000.0,4293.8
634000.0,5665000.0,4373.7
635000.0,5665000.0,4143.3
636000.0,5665000.0,4148.400000000001
637000.0,5665000.0,4155.299999999999
638000.0,5665000.0,4180.6
639000.0,5665000.0,4194.8
640000.0,5665000.0,4166.2
641000.0,5665000.0,4169.0
642000.0,5665000.0,4174.099999999999
643000.0,5665000.0,4173.2
644000.0,5665000.0,4322.3
645000.0,5665000.0,4290.0
646000.0,5665000.0,4491.0
647000.0,5665000.0,4242.5
648000.0,5665000.0,4280.6
649000.0,5665000.0,4414.099999999999
650000.0,5665000.0,4587.6
651000.0,5665000.0,4652.1
652000.0,5665000.0,4919.099999999999
653000.0,5665000.0,5005.1
654000.0,5665000.0,5044.5
655000.0,5665000.0,4995.299999999999
656000.0,5665000.0,4841.5
657000.0,5665000.0,4947.200000000001
658000.0,5665000.0,5001.1
659000.0,5665000.0,4792.7
660000.0,5665000.0,4515.2
661000.0,5665000.0,4416.3
662000.0,5665000.0,4409.5
663000.0,5665000.0,4390.1
664000.0,5665000.0,4519.8
665000.0,5665000.0,4624.700000000001
666000.0,5665000.0,4644.5
667000.0,5665000.0,4720.4
668000.0,5665000.0,4575.299999999999
669000.0,5665000.0,4684.5
670000.0,5665000.0,4693.8
671000.0,5665000.0,4725.0
672000.0,5665000.0,4597.5
679000.0,5665000.0,4317.5
680000.0,5665000.0,4327.3
681000.0,5665000.0,4689.2
682000.0,5665000.0,4606.1
683000.0,5665000.0,4527.6
685000.0,5665000.0,4755.5
686000.0,5665000.0,3872.9
731000.0,5665000.0,4271.9
732000.0,5665000.0,4224.099999999999
733000.0,5665000.0,4230.299999999999
734000.0,5665000.0,4236.8
581000.0,5664000.0,5682.200000000001
582000.0,5664000.0,5439.6
583000.0,5664000.0,4967.9
585000.0,5664000.0,5351.0
586000.0,5664000.0,4968.0
587000.0,5664000.0,4419.700000000001
588000.0,5664000.0,4724.2
589000.0,5664000.0,5578.6
590000.0,5664000.0,5786.700000000001
591000.0,5664000.0,6365.1
592000.0,5664000.0,5957.3
593000.0,5664000.0,5891.2
594000.0,5664000.0,6052.4
595000.0,5664000.0,6624.5
596000.0,5664000.0,7159.9
597000.0,5664000.0,6758.0
598000.0,5664000.0,6146.900000000001
599000.0,5664000.0,5651.3
600000.0,5664000.0,5459.6
601000.0,5664000.0,5219.200000000001
602000.0,5664000.0,5046.1
603000.0,5664000.0,5060.5
604000.0,5664000.0,5091.8
605000.0,5664000.0,4863.1
606000.0,5664000.0,4940.6
607000.0,5664000.0,4780.0
608000.0,5664000.0,4828.7
609000.0,5664000.0,4650.0
610000.0,5664000.0,4529.099999999999
611000.0,5664000.0,4623.8
612000.0,5664000.0,4578.400000000001
613000.0,5664000.0,4507.5
614000.0,5664000.0,4528.0
615000.0,5664000.0,4578.8
616000.0,5664000.0,4429.6
617000.0,5664000.0,4357.0
618000.0,5664000.0,4373.3
619000.0,5664000.0,4552.3
620000.0,5664000.0,4895.7
621000.0,5664000.0,4769.5
622000.0,5664000.0,4544.6
623000.0,5664000.0,4788.0
624000.0,5664000.0,4274.3
625000.0,5664000.0,4270.2
626000.0,5664000.0,4245.900000000001
627000.0,5664000.0,4523.5
628000.0,5664000.0,4461.1
629000.0,5664000.0,4372.7
630000.0,5664000.0,4270.5
631000.0,5664000.0,4425.900000000001
632000.0,5664000.0,4346.4
633000.0,5664000.0,4487.1
634000.0,5664000.0,4251.1
635000.0,5664000.0,4191.5
636000.0,5664000.0,4152.1
637000.0,5664000.0,4174.8
638000.0,5664000.0,4259.2
639000.0,5664000.0,4178.1
640000.0,5664000.0,4155.0
641000.0,5664000.0,4202.3
642000.0,5664000.0,4198.400000000001
643000.0,5664000.0,4189.099999999999
644000.0,5664000.0,4197.200000000001
645000.0,5664000.0,4225.7
646000.0,5664000.0,4212.0
647000.0,5664000.0,4226.3
648000.0,5664000.0,4256.1
649000.0,5664000.0,4335.299999999999
650000.0,5664000.0,4407.9
651000.0,5664000.0,4627.0
652000.0,5664000.0,4672.7
653000.0,5664000.0,5002.9
654000.0,5664000.0,5077.1
655000.0,5664000.0,5064.3
656000.0,5664000.0,5030.1
657000.0,5664000.0,5095.1
658000.0,5664000.0,5119.3
659000.0,5664000.0,4981.599999999999
660000.0,5664000.0,4649.9
661000.0,5664000.0,4593.1
662000.0,5664000.0,4417.200000000001
663000.0,5664000.0,4726.2
664000.0,5664000.0,4882.6
665000.0,5664000.0,4950.900000000001
666000.0,5664000.0,4993.9
667000.0,5664000.0,4831.1
668000.0,5664000.0,4797.0
669000.0,5664000.0,4787.3
670000.0,5664000.0,4943.0
671000.0,5664000.0,4792.799999999999
672000.0,5664000.0,4742.200000000001
673000.0,5664000.0,4645.5
674000.0,5664000.0,4630.4
675000.0,5664000.0,4427.3
676000.0,5664000.0,4376.599999999999
677000.0,5664000.0,4235.4
678000.0,5664000.0,4200.5
679000.0,5664000.0,4176.9
680000.0,5664000.0,4141.7
681000.0,5664000.0,4118.0
682000.0,5664000.0,4370.299999999999
683000.0,5664000.0,4038.7
684000.0,5664000.0,4184.6
685000.0,5664000.0,4603.3
686000.0,5664000.0,4508.2
687000.0,5664000.0,4132.799999999999
688000.0,5664000.0,3961.9
730000.0,5664000.0,4465.900000000001
731000.0,5664000.0,4309.0
732000.0,5664000.0,4298.2
733000.0,5664000.0,4291.0
734000.0,5664000.0,4642.3
735000.0,5664000.0,4426.0
737000.0,5664000.0,4210.1
738000.0,5664000.0,4157.6
740000.0,5664000.0,4351.5
741000.0,5664000.0,4142.0
742000.0,5664000.0,4123.400000000001
583000.0,5663000.0,6249.5
584000.0,5663000.0,6026.900000000001
585000.0,5663000.0,5012.799999999999
586000.0,5663000.0,5087.7
587000.0,5663000.0,5629.9
588000.0,5663000.0,4427.3
589000.0,5663000.0,4435.900000000001
590000.0,5663000.0,4888.1
591000.0,5663000.0,5189.400000000001
592000.0,5663000.0,6060.4
593000.0,5663000.0,5523.0
594000.0,5663000.0,5312.7
595000.0,5663000.0,6536.4
596000.0,5663000.0,6954.8
597000.0,5663000.0,6857.1
598000.0,5663000.0,6561.2
599000.0,5663000.0,6142.200000000001
600000.0,5663000.0,5631.6
601000.0,5663000.0,5630.299999999999
602000.0,5663000.0,5454.700000000001
603000.0,5663000.0,5331.700000000001
604000.0,5663000.0,5236.5
605000.0,5663000.0,5111.1
606000.0,5663000.0,4979.0
607000.0,5663000.0,4929.2
608000.0,5663000.0,4948.400000000001
609000.0,5663000.0,4844.9
610000.0,5663000.0,4941.2
611000.0,5663000.0,4650.5
612000.0,5663000.0,4783.3
613000.0,5663000.0,4857.9
614000.0,5663000.0,4829.700000000001
615000.0,5663000.0,4530.1
616000.0,5663000.0,4481.7
617000.0,5663000.0,4382.200000000001
618000.0,5663000.0,4355.7
619000.0,5663000.0,4344.8
620000.0,5663000.0,4342.799999999999
621000.0,5663000.0,4698.2
622000.0,5663000.0,4869.099999999999
623000.0,5663000.0,4784.3
624000.0,5663000.0,4921.8
625000.0,5663000.0,4716.2
626000.0,5663000.0,4816.3
627000.0,5663000.0,4873.8
628000.0,5663000.0,4788.400000000001
629000.0,5663000.0,4503.0
630000.0,5663000.0,4384.2
631000.0,5663000.0,4260.299999999999
632000.0,5663000.0,4256.8
633000.0,5663000.0,4237.3
634000.0,5663000.0,4267.799999999999
635000.0,5663000.0,4207.1
636000.0,5663000.0,4154.3
637000.0,5663000.0,4173.7
638000.0,5663000.0,4387.200000000001
639000.0,5663000.0,4241.0
640000.0,5663000.0,4183.3
641000.0,5663000.0,4213.7
642000.0,5663000.0,4228.7
643000.0,5663000.0,4217.799999999999
644000.0,5663000.0,4217.1
645000.0,5663000.0,4217.4
646000.0,5663000.0,4260.0
647000.0,5663000.0,4363.1
648000.0,5663000.0,4309.9
649000.0,5663000.0,4276.1
650000.0,5663000.0,4320.7
651000.0,5663000.0,4460.4
652000.0,5663000.0,4655.299999999999
653000.0,5663000.0,5055.299999999999
654000.0,5663000.0,5131.3
655000.0,5663000.0,5095.2
656000.0,5663000.0,4938.5
657000.0,5663000.0,5096.599999999999
658000.0,5663000.0,5034.700000000001
659000.0,5663000.0,4997.799999999999
660000.0,5663000.0,4951.599999999999
661000.0,5663000.0,4653.7
662000.0,5663000.0,4377.9
663000.0,5663000.0,4885.6
664000.0,5663000.0,4875.900000000001
665000.0,5663000.0,5061.4
666000.0,5663000.0,5056.4
667000.0,5663000.0,4986.4
668000.0,5663000.0,4973.2
669000.0,5663000.0,4955.8
670000.0,5663000.0,5151.599999999999
671000.0,5663000.0,5049.099999999999
672000.0,5663000.0,4881.5
673000.0,5663000.0,4760.4
674000.0,5663000.0,4725.4
675000.0,5663000.0,4512.1
676000.0,5663000.0,4629.099999999999
677000.0,5663000.0,4659.2
678000.0,5663000.0,4580.900000000001
679000.0,5663000.0,4689.9
680000.0,5663000.0,4546.1
681000.0,5663000.0,4672.7
682000.0,5663000.0,4803.9
683000.0,5663000.0,4594.2
684000.0,5663000.0,3922.7999999999997
685000.0,5663000.0,5080.1
686000.0,5663000.0,5122.1
687000.0,5663000.0,5013.3
688000.0,5663000.0,4303.5
689000.0,5663000.0,3860.5
730000.0,5663000.0,4317.7
731000.0,5663000.0,4308.1
732000.0,5663000.0,4336.9
733000.0,5663000.0,4149.9
734000.0,5663000.0,4643.400000000001
735000.0,5663000.0,4467.7
736000.0,5663000.0,4332.799999999999
737000.0,5663000.0,4363.1
738000.0,5663000.0,4290.6
739000.0,5663000.0,4313.7
740000.0,5663000.0,4310.5
741000.0,5663000.0,4154.8
742000.0,5663000.0,4150.2
582000.0,5662000.0,7239.400000000001
583000.0,5662000.0,7142.0
584000.0,5662000.0,5876.1
585000.0,5662000.0,5219.300000000001
586000.0,5662000.0,5482.3
587000.0,5662000.0,6660.599999999999
588000.0,5662000.0,6178.6
589000.0,5662000.0,5584.9
590000.0,5662000.0,4899.4
591000.0,5662000.0,5527.6
592000.0,5662000.0,6006.1
593000.0,5662000.0,5073.3
594000.0,5662000.0,6170.0
595000.0,5662000.0,6465.4
596000.0,5662000.0,6521.0
597000.0,5662000.0,7127.3
598000.0,5662000.0,6886.800000000001
599000.0,5662000.0,6565.9
600000.0,5662000.0,6208.9
601000.0,5662000.0,6124.6
602000.0,5662000.0,5966.900000000001
603000.0,5662000.0,5762.4
604000.0,5662000.0,5573.4
605000.0,5662000.0,5518.199999999999
606000.0,5662000.0,5333.099999999999
607000.0,5662000.0,5123.9
608000.0,5662000.0,5255.799999999999
609000.0,5662000.0,5044.4
610000.0,5662000.0,4842.5
611000.0,5662000.0,4949.4
612000.0,5662000.0,5118.7
613000.0,5662000.0,4777.0
614000.0,5662000.0,4665.299999999999
615000.0,5662000.0,4843.2
616000.0,5662000.0,4682.3
617000.0,5662000.0,4653.6
618000.0,5662000.0,4415.0
619000.0,5662000.0,4377.6
620000.0,5662000.0,4371.599999999999
621000.0,5662000.0,4391.9
622000.0,5662000.0,4535.2
623000.0,5662000.0,4905.5
624000.0,5662000.0,4843.9
625000.0,5662000.0,5027.5
626000.0,5662000.0,5075.6
627000.0,5662000.0,5085.4
628000.0,5662000.0,5009.3
629000.0,5662000.0,4922.5
630000.0,5662000.0,4597.9
631000.0,5662000.0,4349.4
632000.0,5662000.0,4269.4
633000.0,5662000.0,4268.2
634000.0,5662000.0,4236.1
635000.0,5662000.0,4198.3
636000.0,5662000.0,4173.5
637000.0,5662000.0,4169.099999999999
638000.0,5662000.0,4174.5
639000.0,5662000.0,4185.900000000001
640000.0,5662000.0,4310.2
641000.0,5662000.0,4272.5
642000.0,5662000.0,4240.8
643000.0,5662000.0,4243.3
644000.0,5662000.0,4235.900000000001
645000.0,5662000.0,4262.4
646000.0,5662000.0,4248.1
647000.0,5662000.0,4266.7
648000.0,5662000.0,4275.5
649000.0,5662000.0,4336.8
650000.0,5662000.0,4285.2
651000.0,5662000.0,4341.4
652000.0,5662000.0,4472.0
653000.0,5662000.0,4591.0
654000.0,5662000.0,4943.5
655000.0,5662000.0,4699.9
656000.0,5662000.0,4944.2
657000.0,5662000.0,4773.2
658000.0,5662000.0,4699.099999999999
659000.0,5662000.0,4730.2
660000.0,5662000.0,4606.1
661000.0,5662000.0,4501.8
662000.0,5662000.0,4556.5
663000.0,5662000.0,4473.0
664000.0,5662000.0,4890.5
665000.0,5662000.0,5039.4
666000.0,5662000.0,5050.0
667000.0,5662000.0,5149.9
668000.0,5662000.0,5204.300000000001
669000.0,5662000.0,5176.5
670000.0,5662000.0,5255.9
671000.0,5662000.0,5023.3
672000.0,5662000.0,4984.5
673000.0,5662000.0,4887.200000000001
674000.0,5662000.0,4708.2
675000.0,5662000.0,4698.0
676000.0,5662000.0,4793.9
677000.0,5662000.0,4818.400000000001
678000.0,5662000.0,4788.8
679000.0,5662000.0,4869.8
680000.0,5662000.0,4750.2
681000.0,5662000.0,4417.5
682000.0,5662000.0,4143.1
683000.0,5662000.0,3975.5
684000.0,5662000.0,4336.0
685000.0,5662000.0,4775.900000000001
686000.0,5662000.0,4972.3
687000.0,5662000.0,5116.2
688000.0,5662000.0,5023.3
689000.0,5662000.0,3872.5
729000.0,5662000.0,4382.200000000001
730000.0,5662000.0,4411.1
731000.0,5662000.0,4278.7
732000.0,5662000.0,4444.6
733000.0,5662000.0,4368.6
734000.0,5662000.0,4509.2
735000.0,5662000.0,4396.3
736000.0,5662000.0,4237.4
737000.0,5662000.0,4419.5
738000.0,5662000.0,4371.9
739000.0,5662000.0,4326.9
740000.0,5662000.0,4279.6
741000.0,5662000.0,4210.7
742000.0,5662000.0,4153.1
743000.0,5662000.0,4312.9
744000.0,5662000.0,4409.2
745000.0,5662000.0,4340.8
581000.0,5661000.0,7067.799999999999
582000.0,5661000.0,6603.9
583000.0,5661000.0,6237.5
584000.0,5661000.0,6679.8
585000.0,5661000.0,5067.7
586000.0,5661000.0,6803.9
587000.0,5661000.0,6732.200000000001
588000.0,5661000.0,6513.9
589000.0,5661000.0,4578.7
590000.0,5661000.0,5271.0
591000.0,5661000.0,4481.5
592000.0,5661000.0,5293.8
593000.0,5661000.0,4596.5
594000.0,5661000.0,5898.199999999999
595000.0,5661000.0,5149.0
596000.0,5661000.0,5840.2
597000.0,5661000.0,6611.0
598000.0,5661000.0,7041.900000000001
599000.0,5661000.0,6942.6
600000.0,5661000.0,6754.5
601000.0,5661000.0,6446.900000000001
602000.0,5661000.0,6412.0
603000.0,5661000.0,6180.5
604000.0,5661000.0,6051.2
605000.0,5661000.0,5750.9
606000.0,5661000.0,5659.400000000001
607000.0,5661000.0,5502.7
608000.0,5661000.0,5375.599999999999
609000.0,5661000.0,5376.800000000001
610000.0,5661000.0,5267.7
611000.0,5661000.0,5250.1
612000.0,5661000.0,5114.2
613000.0,5661000.0,4856.1
614000.0,5661000.0,4989.099999999999
615000.0,5661000.0,5199.6
616000.0,5661000.0,4899.700000000001
617000.0,5661000.0,4790.5
618000.0,5661000.0,4536.3
619000.0,5661000.0,4529.6
620000.0,5661000.0,4462.4
621000.0,5661000.0,4452.6
622000.0,5661000.0,4752.0
623000.0,5661000.0,4746.3
624000.0,5661000.0,4780.4
625000.0,5661000.0,4882.5
626000.0,5661000.0,4915.6
627000.0,5661000.0,4827.799999999999
628000.0,5661000.0,4765.8
629000.0,5661000.0,4773.5
630000.0,5661000.0,4666.1
631000.0,5661000.0,4443.1
632000.0,5661000.0,4280.6
633000.0,5661000.0,4273.0
634000.0,5661000.0,4229.9
635000.0,5661000.0,4213.400000000001
636000.0,5661000.0,4185.7
637000.0,5661000.0,4179.6
638000.0,5661000.0,4189.8
639000.0,5661000.0,4192.1
640000.0,5661000.0,4210.0
641000.0,5661000.0,4490.6
642000.0,5661000.0,4241.3
643000.0,5661000.0,4266.2
644000.0,5661000.0,4268.3
645000.0,5661000.0,4267.1
646000.0,5661000.0,4279.0
647000.0,5661000.0,4315.8
648000.0,5661000.0,4287.5
649000.0,5661000.0,4281.7
650000.0,5661000.0,4320.0
651000.0,5661000.0,4334.8
652000.0,5661000.0,4363.7
653000.0,5661000.0,4434.4
654000.0,5661000.0,4427.0
655000.0,5661000.0,4482.9
656000.0,5661000.0,4506.4
657000.0,5661000.0,4603.3
658000.0,5661000.0,4540.6
659000.0,5661000.0,4552.1
660000.0,5661000.0,4610.8
661000.0,5661000.0,4633.2
662000.0,5661000.0,4644.8
663000.0,5661000.0,4651.599999999999
664000.0,5661000.0,4684.2
665000.0,5661000.0,4627.1
666000.0,5661000.0,5057.3
667000.0,5661000.0,5292.9
668000.0,5661000.0,5389.200000000001
669000.0,5661000.0,5426.700000000001
670000.0,5661000.0,5309.6
671000.0,5661000.0,5306.5
672000.0,5661000.0,5206.900000000001
673000.0,5661000.0,5010.5
674000.0,5661000.0,4901.5
675000.0,5661000.0,4864.3
676000.0,5661000.0,4754.3
677000.0,5661000.0,4788.7
678000.0,5661000.0,4642.1
679000.0,5661000.0,4288.5
680000.0,5661000.0,4094.8
681000.0,5661000.0,3999.8
682000.0,5661000.0,4343.8
683000.0,5661000.0,4472.799999999999
684000.0,5661000.0,4666.3
685000.0,5661000.0,4719.6
686000.0,5661000.0,4938.6
687000.0,5661000.0,5087.3
688000.0,5661000.0,4545.7
689000.0,5661000.0,4017.1000000000004
729000.0,5661000.0,4468.7
730000.0,5661000.0,4597.0
731000.0,5661000.0,4466.8
732000.0,5661000.0,4397.0
733000.0,5661000.0,4255.8
734000.0,5661000.0,4465.4
735000.0,5661000.0,4470.8
736000.0,5661000.0,4461.7
737000.0,5661000.0,4433.2
738000.0,5661000.0,4386.0
739000.0,5661000.0,4510.1
740000.0,5661000.0,4403.0
741000.0,5661000.0,4337.6
742000.0,5661000.0,4184.8
743000.0,5661000.0,4318.400000000001
744000.0,5661000.0,4399.4
745000.0,5661000.0,4351.599999999999
581000.0,5660000.0,6492.6
582000.0,5660000.0,5965.2
583000.0,5660000.0,6797.4
584000.0,5660000.0,6572.3
585000.0,5660000.0,5272.1
586000.0,5660000.0,6780.799999999999
587000.0,5660000.0,6138.099999999999
588000.0,5660000.0,5846.2
589000.0,5660000.0,6046.6
590000.0,5660000.0,5658.0
591000.0,5660000.0,5419.300000000001
592000.0,5660000.0,4494.9
593000.0,5660000.0,4647.7
594000.0,5660000.0,5018.8
595000.0,5660000.0,5612.4
596000.0,5660000.0,5732.5
597000.0,5660000.0,6713.199999999999
598000.0,5660000.0,6868.4
599000.0,5660000.0,6914.700000000001
600000.0,5660000.0,7084.8
601000.0,5660000.0,6797.1
602000.0,5660000.0,6848.6
603000.0,5660000.0,6751.4
604000.0,5660000.0,6559.5
605000.0,5660000.0,6303.5
606000.0,5660000.0,6069.700000000001
607000.0,5660000.0,5779.1
608000.0,5660000.0,5688.199999999999
609000.0,5660000.0,5492.6
610000.0,5660000.0,5462.4
611000.0,5660000.0,5257.799999999999
612000.0,5660000.0,5107.9
613000.0,5660000.0,5147.9
614000.0,5660000.0,5298.199999999999
615000.0,5660000.0,5316.1
616000.0,5660000.0,5132.3
617000.0,5660000.0,4671.8
618000.0,5660000.0,4773.6
619000.0,5660000.0,4762.5
620000.0,5660000.0,4540.2
621000.0,5660000.0,4656.4
622000.0,5660000.0,4533.400000000001
623000.0,5660000.0,4707.6
624000.0,5660000.0,4864.2
625000.0,5660000.0,4791.599999999999
626000.0,5660000.0,4686.7
627000.0,5660000.0,4588.2
628000.0,5660000.0,4564.8
629000.0,5660000.0,4495.2
630000.0,5660000.0,4371.9
631000.0,5660000.0,4363.2
632000.0,5660000.0,4372.7
633000.0,5660000.0,4289.099999999999
634000.0,5660000.0,4301.2
635000.0,5660000.0,4191.4
636000.0,5660000.0,4196.1
637000.0,5660000.0,4192.9
638000.0,5660000.0,4205.5
639000.0,5660000.0,4216.2
640000.0,5660000.0,4226.599999999999
641000.0,5660000.0,4432.0
642000.0,5660000.0,4484.099999999999
643000.0,5660000.0,4294.9
644000.0,5660000.0,4290.900000000001
645000.0,5660000.0,4309.3
646000.0,5660000.0,4244.8
647000.0,5660000.0,4245.900000000001
648000.0,5660000.0,4263.0
649000.0,5660000.0,4337.200000000001
650000.0,5660000.0,4312.9
651000.0,5660000.0,4516.9
652000.0,5660000.0,4384.0
653000.0,5660000.0,4478.1
654000.0,5660000.0,4609.9
655000.0,5660000.0,4762.799999999999
656000.0,5660000.0,4723.0
657000.0,5660000.0,4764.700000000001
658000.0,5660000.0,4660.8
659000.0,5660000.0,4794.4
660000.0,5660000.0,4708.6
661000.0,5660000.0,4725.4
662000.0,5660000.0,4710.6
663000.0,5660000.0,4812.200000000001
664000.0,5660000.0,4732.5
665000.0,5660000.0,4727.5
666000.0,5660000.0,4888.7
667000.0,5660000.0,5154.0
668000.0,5660000.0,5132.1
669000.0,5660000.0,5249.0
670000.0,5660000.0,5221.700000000001
671000.0,5660000.0,5141.4
672000.0,5660000.0,4893.6
673000.0,5660000.0,4604.9
674000.0,5660000.0,4721.2
675000.0,5660000.0,4704.0
676000.0,5660000.0,4538.6
677000.0,5660000.0,4651.5
678000.0,5660000.0,4494.099999999999
679000.0,5660000.0,4062.7
680000.0,5660000.0,4077.8999999999996
681000.0,5660000.0,4316.2
682000.0,5660000.0,4684.099999999999
683000.0,5660000.0,4831.9
684000.0,5660000.0,5073.1
685000.0,5660000.0,5179.300000000001
686000.0,5660000.0,5209.099999999999
687000.0,5660000.0,5243.8
688000.0,5660000.0,5221.4
689000.0,5660000.0,4728.8
690000.0,5660000.0,4200.1
691000.0,5660000.0,4333.1
692000.0,5660000.0,4939.2
729000.0,5660000.0,4522.799999999999
730000.0,5660000.0,4446.0
731000.0,5660000.0,4370.1
732000.0,5660000.0,4449.2
733000.0,5660000.0,4575.5
734000.0,5660000.0,4508.8
735000.0,5660000.0,4578.2
736000.0,5660000.0,4675.6
737000.0,5660000.0,4458.2
738000.0,5660000.0,4381.5
739000.0,5660000.0,4386.4
740000.0,5660000.0,4494.4
741000.0,5660000.0,4207.3
742000.0,5660000.0,4315.0
743000.0,5660000.0,4237.9
744000.0,5660000.0,4454.700000000001
745000.0,5660000.0,4429.099999999999
581000.0,5659000.0,5338.4
582000.0,5659000.0,6091.800000000001
583000.0,5659000.0,6125.799999999999
584000.0,5659000.0,6571.3
585000.0,5659000.0,5473.8
586000.0,5659000.0,6613.7
587000.0,5659000.0,6496.2
588000.0,5659000.0,6444.6
589000.0,5659000.0,5276.5
590000.0,5659000.0,5192.1
591000.0,5659000.0,4525.299999999999
592000.0,5659000.0,4742.6
593000.0,5659000.0,4657.7
594000.0,5659000.0,4841.9
595000.0,5659000.0,5074.700000000001
596000.0,5659000.0,6165.599999999999
597000.0,5659000.0,5986.700000000001
598000.0,5659000.0,6202.3
599000.0,5659000.0,6992.200000000001
600000.0,5659000.0,7187.200000000001
601000.0,5659000.0,7214.5
602000.0,5659000.0,7354.300000000001
603000.0,5659000.0,7103.199999999999
604000.0,5659000.0,6798.199999999999
605000.0,5659000.0,6471.6
606000.0,5659000.0,6258.8
607000.0,5659000.0,6205.599999999999
608000.0,5659000.0,6063.0
609000.0,5659000.0,5956.6
610000.0,5659000.0,5790.0
611000.0,5659000.0,5481.6
612000.0,5659000.0,5480.9
613000.0,5659000.0,5448.8
614000.0,5659000.0,5494.8
615000.0,5659000.0,5301.5
616000.0,5659000.0,5200.1
617000.0,5659000.0,5144.400000000001
618000.0,5659000.0,4721.1
619000.0,5659000.0,4641.3
620000.0,5659000.0,4653.9
621000.0,5659000.0,4791.8
622000.0,5659000.0,4943.6
623000.0,5659000.0,5008.8
624000.0,5659000.0,5130.299999999999
625000.0,5659000.0,4948.400000000001
626000.0,5659000.0,4824.4
627000.0,5659000.0,4568.400000000001
628000.0,5659000.0,4528.6
629000.0,5659000.0,4453.7
630000.0,5659000.0,4605.8
631000.0,5659000.0,4413.400000000001
632000.0,5659000.0,4355.0
633000.0,5659000.0,4455.299999999999
634000.0,5659000.0,4430.900000000001
635000.0,5659000.0,4501.0
636000.0,5659000.0,4218.7
637000.0,5659000.0,4227.3
638000.0,5659000.0,4231.5
639000.0,5659000.0,4243.400000000001
640000.0,5659000.0,4250.900000000001
641000.0,5659000.0,4251.4
642000.0,5659000.0,4253.3
643000.0,5659000.0,4307.6
644000.0,5659000.0,4322.4
645000.0,5659000.0,4333.2
646000.0,5659000.0,4258.8
647000.0,5659000.0,4269.8
648000.0,5659000.0,4297.1
649000.0,5659000.0,4294.700000000001
650000.0,5659000.0,4331.8
651000.0,5659000.0,4420.4
652000.0,5659000.0,4571.5
653000.0,5659000.0,4499.8
654000.0,5659000.0,4707.7
655000.0,5659000.0,4808.400000000001
656000.0,5659000.0,4808.6
657000.0,5659000.0,4951.8
658000.0,5659000.0,4956.8
659000.0,5659000.0,4975.299999999999
660000.0,5659000.0,4844.6
661000.0,5659000.0,4866.7
662000.0,5659000.0,4939.4
663000.0,5659000.0,4948.3
664000.0,5659000.0,4935.8
665000.0,5659000.0,4820.2
666000.0,5659000.0,5030.0
667000.0,5659000.0,5052.9
668000.0,5659000.0,5112.5
669000.0,5659000.0,5225.699999999999
670000.0,5659000.0,5097.799999999999
671000.0,5659000.0,4901.2
672000.0,5659000.0,4790.1
673000.0,5659000.0,4813.3
674000.0,5659000.0,4627.5
675000.0,5659000.0,4250.4
676000.0,5659000.0,4340.5
677000.0,5659000.0,4359.099999999999
678000.0,5659000.0,4096.7
679000.0,5659000.0,4320.4
680000.0,5659000.0,4405.7
681000.0,5659000.0,4753.7
682000.0,5659000.0,4995.5
683000.0,5659000.0,5325.2
684000.0,5659000.0,5559.700000000001
685000.0,5659000.0,5451.0
686000.0,5659000.0,5387.5
687000.0,5659000.0,5110.299999999999
688000.0,5659000.0,4666.4
689000.0,5659000.0,4276.2
690000.0,5659000.0,4233.3
691000.0,5659000.0,4853.2
692000.0,5659000.0,4882.4
695000.0,5659000.0,5413.099999999999
696000.0,5659000.0,5234.6
698000.0,5659000.0,4999.0
699000.0,5659000.0,4763.2
700000.0,5659000.0,4465.4
701000.0,5659000.0,4506.9
702000.0,5659000.0,4940.299999999999
731000.0,5659000.0,4553.5
732000.0,5659000.0,4704.0
733000.0,5659000.0,4822.3
734000.0,5659000.0,4664.5
735000.0,5659000.0,4764.0
736000.0,5659000.0,4766.1
737000.0,5659000.0,4617.9
738000.0,5659000.0,4492.4
739000.0,5659000.0,4353.2
740000.0,5659000.0,4381.8
741000.0,5659000.0,4270.6
742000.0,5659000.0,4300.0
743000.0,5659000.0,4254.9
744000.0,5659000.0,4385.0
745000.0,5659000.0,4576.3
581000.0,5658000.0,5367.9
582000.0,5658000.0,5081.4
583000.0,5658000.0,5889.0
584000.0,5658000.0,6054.9
585000.0,5658000.0,6023.199999999999
586000.0,5658000.0,6286.0
587000.0,5658000.0,6310.799999999999
588000.0,5658000.0,5423.5
589000.0,5658000.0,4541.7
590000.0,5658000.0,5669.8
591000.0,5658000.0,5434.700000000001
592000.0,5658000.0,5190.699999999999
593000.0,5658000.0,5165.8
594000.0,5658000.0,5129.099999999999
595000.0,5658000.0,4950.4
596000.0,5658000.0,5315.9
597000.0,5658000.0,6128.099999999999
598000.0,5658000.0,6400.599999999999
599000.0,5658000.0,6037.7
600000.0,5658000.0,6836.800000000001
601000.0,5658000.0,7190.699999999999
602000.0,5658000.0,7228.299999999999
603000.0,5658000.0,7122.1
604000.0,5658000.0,7155.1
605000.0,5658000.0,6787.7
606000.0,5658000.0,6566.5
607000.0,5658000.0,6378.5
608000.0,5658000.0,6303.6
609000.0,5658000.0,6272.799999999999
610000.0,5658000.0,6204.8
611000.0,5658000.0,6106.800000000001
612000.0,5658000.0,5845.699999999999
613000.0,5658000.0,5728.8
614000.0,5658000.0,5642.4
615000.0,5658000.0,5583.199999999999
616000.0,5658000.0,5266.2
617000.0,5658000.0,5269.0
618000.0,5658000.0,5303.099999999999
619000.0,5658000.0,4835.299999999999
620000.0,5658000.0,5147.200000000001
621000.0,5658000.0,5114.3
622000.0,5658000.0,5506.900000000001
623000.0,5658000.0,5762.4
624000.0,5658000.0,6487.1
625000.0,5658000.0,5534.0
626000.0,5658000.0,4967.6
627000.0,5658000.0,4805.2
628000.0,5658000.0,4530.1
629000.0,5658000.0,4504.0
630000.0,5658000.0,4523.6
631000.0,5658000.0,4523.1
632000.0,5658000.0,4480.8
633000.0,5658000.0,4481.3
634000.0,5658000.0,4403.9
635000.0,5658000.0,4280.4
636000.0,5658000.0,4236.5
637000.0,5658000.0,4242.4
638000.0,5658000.0,4248.1
639000.0,5658000.0,4311.599999999999
640000.0,5658000.0,4205.900000000001
641000.0,5658000.0,4265.4
642000.0,5658000.0,4315.5
643000.0,5658000.0,4344.2
644000.0,5658000.0,4316.5
645000.0,5658000.0,4426.7
646000.0,5658000.0,4605.1
647000.0,5658000.0,4391.0
648000.0,5658000.0,4363.5
649000.0,5658000.0,4398.5
650000.0,5658000.0,4351.1
651000.0,5658000.0,4378.3
652000.0,5658000.0,4459.2
653000.0,5658000.0,4624.0
654000.0,5658000.0,4941.2
655000.0,5658000.0,5068.5
656000.0,5658000.0,5150.599999999999
657000.0,5658000.0,5254.400000000001
658000.0,5658000.0,5314.5
659000.0,5658000.0,5220.4
660000.0,5658000.0,5105.6
661000.0,5658000.0,5074.6
662000.0,5658000.0,5161.3
663000.0,5658000.0,5011.599999999999
664000.0,5658000.0,5143.6
665000.0,5658000.0,5080.8
666000.0,5658000.0,5139.400000000001
667000.0,5658000.0,5243.0
668000.0,5658000.0,5324.200000000001
669000.0,5658000.0,5176.7
670000.0,5658000.0,5275.599999999999
671000.0,5658000.0,5181.599999999999
672000.0,5658000.0,5025.5
673000.0,5658000.0,4952.5
674000.0,5658000.0,4901.8
675000.0,5658000.0,4257.7
676000.0,5658000.0,4767.5
677000.0,5658000.0,4565.0
678000.0,5658000.0,4261.4
679000.0,5658000.0,4544.2
680000.0,5658000.0,4837.6
681000.0,5658000.0,5006.0
682000.0,5658000.0,5316.5
683000.0,5658000.0,5532.0
684000.0,5658000.0,5662.1
685000.0,5658000.0,5551.1
686000.0,5658000.0,5173.3
687000.0,5658000.0,4692.4
688000.0,5658000.0,3915.6
689000.0,5658000.0,4615.4
690000.0,5658000.0,4554.8
691000.0,5658000.0,4743.9
692000.0,5658000.0,5348.099999999999
693000.0,5658000.0,5598.7
694000.0,5658000.0,5752.0
695000.0,5658000.0,5583.299999999999
696000.0,5658000.0,5371.900000000001
697000.0,5658000.0,5032.1
698000.0,5658000.0,4913.400000000001
699000.0,5658000.0,4822.1
700000.0,5658000.0,4942.200000000001
701000.0,5658000.0,4518.0
702000.0,5658000.0,5119.2
703000.0,5658000.0,5006.5
704000.0,5658000.0,5418.7
731000.0,5658000.0,4852.6
732000.0,5658000.0,4806.4
733000.0,5658000.0,4829.6
734000.0,5658000.0,4636.2
735000.0,5658000.0,4655.4
736000.0,5658000.0,4635.2
737000.0,5658000.0,4630.6
738000.0,5658000.0,4752.9
739000.0,5658000.0,4677.7
740000.0,5658000.0,4455.0
741000.0,5658000.0,4256.3
742000.0,5658000.0,4456.5
743000.0,5658000.0,4328.9
744000.0,5658000.0,4284.8
745000.0,5658000.0,4564.3
746000.0,5658000.0,4533.1
747000.0,5658000.0,4655.2
748000.0,5658000.0,4701.2
580000.0,5657000.0,6012.5
581000.0,5657000.0,5998.199999999999
582000.0,5657000.0,5384.9
583000.0,5657000.0,4902.1
584000.0,5657000.0,4990.900000000001
585000.0,5657000.0,5537.799999999999
586000.0,5657000.0,5228.6
587000.0,5657000.0,5684.1
588000.0,5657000.0,4625.8
589000.0,5657000.0,4528.7
590000.0,5657000.0,5783.5
591000.0,5657000.0,5466.800000000001
592000.0,5657000.0,5641.2
593000.0,5657000.0,5465.0
594000.0,5657000.0,5402.1
595000.0,5657000.0,5262.200000000001
596000.0,5657000.0,5053.5
597000.0,5657000.0,5412.5
598000.0,5657000.0,5598.099999999999
599000.0,5657000.0,5660.0
600000.0,5657000.0,7256.6
601000.0,5657000.0,7315.599999999999
602000.0,5657000.0,7412.3
603000.0,5657000.0,7214.200000000001
604000.0,5657000.0,6879.0
605000.0,5657000.0,7087.799999999999
606000.0,5657000.0,6575.1
607000.0,5657000.0,6212.6
608000.0,5657000.0,6033.7
609000.0,5657000.0,5997.4
610000.0,5657000.0,6120.5
611000.0,5657000.0,6212.4
612000.0,5657000.0,6187.9
613000.0,5657000.0,6160.2
614000.0,5657000.0,5873.8
615000.0,5657000.0,5726.3
616000.0,5657000.0,5735.9
617000.0,5657000.0,5415.699999999999
618000.0,5657000.0,5387.200000000001
619000.0,5657000.0,5438.5
620000.0,5657000.0,5329.200000000001
621000.0,5657000.0,5235.5
622000.0,5657000.0,5991.900000000001
623000.0,5657000.0,6481.1
624000.0,5657000.0,6707.4
625000.0,5657000.0,6730.799999999999
626000.0,5657000.0,5730.599999999999
627000.0,5657000.0,5095.5
628000.0,5657000.0,4887.4
629000.0,5657000.0,4741.1
630000.0,5657000.0,4617.200000000001
631000.0,5657000.0,4809.5
632000.0,5657000.0,4585.7
633000.0,5657000.0,4499.9
634000.0,5657000.0,4378.9
635000.0,5657000.0,4481.3
636000.0,5657000.0,4268.1
637000.0,5657000.0,4268.3
638000.0,5657000.0,4286.0
639000.0,5657000.0,4284.0
640000.0,5657000.0,4291.599999999999
641000.0,5657000.0,4363.3
642000.0,5657000.0,4439.2
643000.0,5657000.0,4366.5
644000.0,5657000.0,4370.8
645000.0,5657000.0,4457.5
646000.0,5657000.0,4732.799999999999
647000.0,5657000.0,4617.4
648000.0,5657000.0,4531.599999999999
649000.0,5657000.0,4418.6
650000.0,5657000.0,4368.9
651000.0,5657000.0,4384.099999999999
652000.0,5657000.0,4496.3
653000.0,5657000.0,4751.9
654000.0,5657000.0,5001.3
655000.0,5657000.0,5377.1
656000.0,5657000.0,5627.7
657000.0,5657000.0,5730.9
658000.0,5657000.0,5516.2
659000.0,5657000.0,5446.0
660000.0,5657000.0,5355.9
661000.0,5657000.0,5302.9
662000.0,5657000.0,5248.5
663000.0,5657000.0,5335.5
664000.0,5657000.0,5248.299999999999
665000.0,5657000.0,5232.3
666000.0,5657000.0,5269.700000000001
667000.0,5657000.0,5377.7
668000.0,5657000.0,5365.799999999999
669000.0,5657000.0,5343.7
670000.0,5657000.0,5310.599999999999
671000.0,5657000.0,5450.0
672000.0,5657000.0,5278.8
673000.0,5657000.0,5006.599999999999
674000.0,5657000.0,4459.4
675000.0,5657000.0,4697.9
676000.0,5657000.0,4786.4
677000.0,5657000.0,4234.3
678000.0,5657000.0,4353.400000000001
679000.0,5657000.0,4847.1
680000.0,5657000.0,4940.5
681000.0,5657000.0,5183.0
682000.0,5657000.0,5433.299999999999
683000.0,5657000.0,5547.7
684000.0,5657000.0,5611.900000000001
685000.0,5657000.0,5539.1
686000.0,5657000.0,5104.5
687000.0,5657000.0,4383.5
688000.0,5657000.0,4284.4
689000.0,5657000.0,4177.5
690000.0,5657000.0,4875.4
691000.0,5657000.0,5509.400000000001
692000.0,5657000.0,5548.299999999999
693000.0,5657000.0,5747.5
694000.0,5657000.0,5565.699999999999
695000.0,5657000.0,5326.800000000001
696000.0,5657000.0,5236.5
697000.0,5657000.0,5283.4
698000.0,5657000.0,5156.5
699000.0,5657000.0,4928.8
700000.0,5657000.0,4682.7
701000.0,5657000.0,4849.2
702000.0,5657000.0,5130.0
703000.0,5657000.0,4910.0
704000.0,5657000.0,5528.299999999999
706000.0,5657000.0,5630.5
731000.0,5657000.0,4896.9
732000.0,5657000.0,4893.8
733000.0,5657000.0,4559.8
734000.0,5657000.0,4802.1
735000.0,5657000.0,4523.9
736000.0,5657000.0,4460.7
737000.0,5657000.0,4415.4
738000.0,5657000.0,4629.2
739000.0,5657000.0,4465.0
740000.0,5657000.0,4373.1
741000.0,5657000.0,4348.1
742000.0,5657000.0,4341.7
743000.0,5657000.0,4460.299999999999
744000.0,5657000.0,4286.7
745000.0,5657000.0,4413.7
746000.0,5657000.0,4593.5
747000.0,5657000.0,4660.0
748000.0,5657000.0,4731.7
582000.0,5656000.0,6448.9
583000.0,5656000.0,5900.4
584000.0,5656000.0,4964.700000000001
585000.0,5656000.0,4703.400000000001
586000.0,5656000.0,4591.7
587000.0,5656000.0,4577.0
588000.0,5656000.0,5176.2
589000.0,5656000.0,6188.9
590000.0,5656000.0,6323.8
591000.0,5656000.0,6221.6
592000.0,5656000.0,6012.5
593000.0,5656000.0,6159.400000000001
594000.0,5656000.0,5890.5
595000.0,5656000.0,5455.4
596000.0,5656000.0,5188.6
597000.0,5656000.0,5281.1
598000.0,5656000.0,5894.200000000001
599000.0,5656000.0,6770.2
600000.0,5656000.0,6257.200000000001
601000.0,5656000.0,6711.4
602000.0,5656000.0,7054.1
603000.0,5656000.0,7326.3
604000.0,5656000.0,6926.3
605000.0,5656000.0,6329.5
606000.0,5656000.0,6564.5
607000.0,5656000.0,6115.5
608000.0,5656000.0,5824.200000000001
609000.0,5656000.0,5696.3
610000.0,5656000.0,5691.1
611000.0,5656000.0,5829.0
612000.0,5656000.0,6057.0
613000.0,5656000.0,6121.4
614000.0,5656000.0,6175.799999999999
615000.0,5656000.0,5968.6
616000.0,5656000.0,5907.9
617000.0,5656000.0,5769.200000000001
618000.0,5656000.0,5634.1
619000.0,5656000.0,5578.0
620000.0,5656000.0,5257.9
621000.0,5656000.0,5314.8
622000.0,5656000.0,5777.7
623000.0,5656000.0,6266.2
624000.0,5656000.0,6464.400000000001
625000.0,5656000.0,6622.3
626000.0,5656000.0,6664.6
627000.0,5656000.0,5882.1
628000.0,5656000.0,5159.5
629000.0,5656000.0,5002.5
630000.0,5656000.0,5074.4
631000.0,5656000.0,4919.9
632000.0,5656000.0,4709.700000000001
633000.0,5656000.0,4673.0
634000.0,5656000.0,4571.4
635000.0,5656000.0,4485.2
636000.0,5656000.0,4382.200000000001
637000.0,5656000.0,4308.3
638000.0,5656000.0,4299.4
639000.0,5656000.0,4296.8
640000.0,5656000.0,4342.0
641000.0,5656000.0,4385.5
642000.0,5656000.0,4492.200000000001
643000.0,5656000.0,4389.700000000001
644000.0,5656000.0,4361.4
645000.0,5656000.0,4459.6
646000.0,5656000.0,4632.799999999999
647000.0,5656000.0,4765.0
648000.0,5656000.0,4728.0
649000.0,5656000.0,4624.099999999999
650000.0,5656000.0,4399.9
651000.0,5656000.0,4415.900000000001
652000.0,5656000.0,4485.6
653000.0,5656000.0,4690.299999999999
654000.0,5656000.0,5208.199999999999
655000.0,5656000.0,5888.299999999999
656000.0,5656000.0,6064.1
657000.0,5656000.0,6121.5
658000.0,5656000.0,6164.8
659000.0,5656000.0,6069.400000000001
660000.0,5656000.0,5652.4
661000.0,5656000.0,5704.300000000001
662000.0,5656000.0,5562.6
663000.0,5656000.0,5587.3
664000.0,5656000.0,5558.9
665000.0,5656000.0,5546.2
666000.0,5656000.0,5544.300000000001
667000.0,5656000.0,5717.1
668000.0,5656000.0,5610.699999999999
669000.0,5656000.0,5592.3
670000.0,5656000.0,5406.6
671000.0,5656000.0,5096.3
672000.0,5656000.0,4855.6
673000.0,5656000.0,4495.0
674000.0,5656000.0,4491.2
675000.0,5656000.0,4644.700000000001
676000.0,5656000.0,4491.2
677000.0,5656000.0,4595.0
678000.0,5656000.0,4888.6
679000.0,5656000.0,5082.799999999999
680000.0,5656000.0,4942.7
681000.0,5656000.0,5089.099999999999
682000.0,5656000.0,5282.200000000001
683000.0,5656000.0,5456.5
684000.0,5656000.0,5663.8
685000.0,5656000.0,5681.700000000001
686000.0,5656000.0,5178.0
687000.0,5656000.0,5353.4
688000.0,5656000.0,4515.2
689000.0,5656000.0,4579.700000000001
690000.0,5656000.0,5544.200000000001
691000.0,5656000.0,5843.299999999999
692000.0,5656000.0,5763.4
693000.0,5656000.0,5801.700000000001
694000.0,5656000.0,5752.200000000001
695000.0,5656000.0,5619.5
696000.0,5656000.0,5475.599999999999
697000.0,5656000.0,5435.4
698000.0,5656000.0,5333.099999999999
699000.0,5656000.0,4829.099999999999
700000.0,5656000.0,5209.8
701000.0,5656000.0,5484.300000000001
702000.0,5656000.0,5408.5
703000.0,5656000.0,5277.799999999999
704000.0,5656000.0,5426.6
705000.0,5656000.0,5588.0
706000.0,5656000.0,5610.2
707000.0,5656000.0,5448.5
708000.0,5656000.0,5003.8
731000.0,5656000.0,5187.0
732000.0,5656000.0,4982.0
733000.0,5656000.0,4849.4
734000.0,5656000.0,4633.5
735000.0,5656000.0,4734.0
736000.0,5656000.0,4588.6
737000.0,5656000.0,4468.9
738000.0,5656000.0,4494.2
739000.0,5656000.0,4650.0
740000.0,5656000.0,4691.4
741000.0,5656000.0,4544.2
742000.0,5656000.0,4688.5
743000.0,5656000.0,4588.3
744000.0,5656000.0,4315.2
745000.0,5656000.0,4359.700000000001
746000.0,5656000.0,4431.9
747000.0,5656000.0,4619.0
584000.0,5655000.0,6059.8
585000.0,5655000.0,4747.7
586000.0,5655000.0,4585.299999999999
587000.0,5655000.0,4610.8
588000.0,5655000.0,4762.799999999999
589000.0,5655000.0,5008.1
590000.0,5655000.0,6153.5
591000.0,5655000.0,6174.400000000001
592000.0,5655000.0,5861.2
593000.0,5655000.0,6281.900000000001
594000.0,5655000.0,6168.6
595000.0,5655000.0,6115.699999999999
596000.0,5655000.0,5902.200000000001
597000.0,5655000.0,5565.699999999999
598000.0,5655000.0,5728.6
599000.0,5655000.0,6147.4
600000.0,5655000.0,6665.9
601000.0,5655000.0,7144.200000000001
602000.0,5655000.0,6393.6
603000.0,5655000.0,6049.1
